ncols         322
nrows         74
xllcorner     6154240.15
yllcorner     2016615.69625
cellsize      6
NODATA_value  -9999
212 213 215 216 217 218 219 220 221 222 224 224 226 227 228 229 230 232 233 234 236 237 238 240 241 242 243 244 245 246 247 248 249 249 250 250 251 252 252 253 254 254 254 254 255 255 255 254 254 253 253 253 251 250 250 250 249 244 243 243 242 241 241 238 234 236 241 247 248 251 254 257 261 265 270 274 277 282 285 289 295 299 302 305 309 313 316 320 324 328 332 336 339 342 345 347 349 352 354 356 359 360 361 363 366 366 367 367 369 369 370 371 372 372 373 374 375 376 377 378 377 376 376 376 377 379 380 380 383 386 389 391 394 398 400 399 401 403 405 405 406 407 407 408 409 410 411 412 412 413 414 415 416 416 417 418 418 419 419 419 419 419 420 419 419 420 420 419 421 422 422 422 422 422 422 422 422 422 422 422 423 423 424 424 425 425 426 426 427 427 427 427 427 427 427 428 428 428 429 430 430 430 430 431 431 432 432 433 433 434 434 435 436 436 437 438 439 440 441 441 442 442 441 441 441 440 440 439 439 439 438 438 439 439 440 440 440 441 442 443 443 444 444 445 445 446 447 448 449 450 451 452 454 455 457 459 460 462 463 465 466 467 469 471 473 475 476 478 479 481 483 485 487 488 489 491 493 495 497 499 501 504 506 508 510 512 514 515 515 517 518 519 520 521 523 524 525 526 528 529 530 530 531 532 533 533 534 534 534 535 535 535 535 535 535 535 535 536 535 535 534 534
210 211 213 213 215 216 217 218 219 221 222 223 223 224 225 227 228 229 231 233 234 235 236 237 239 240 240 242 243 243 244 245 246 246 247 248 249 249 250 250 251 251 251 252 252 252 252 251 250 250 250 250 248 246 246 245 243 240 240 240 239 239 238 241 238 239 243 247 250 253 257 260 265 269 274 278 280 283 287 293 298 300 304 307 311 314 318 322 325 329 334 337 340 344 346 348 351 353 355 357 359 361 363 367 368 369 370 371 371 371 371 372 373 373 374 375 376 377 378 379 379 378 378 379 380 381 381 383 385 387 390 391 395 397 398 398 401 403 405 405 406 407 407 408 410 411 412 412 412 413 415 416 416 417 418 418 419 419 419 419 419 420 420 420 420 420 420 421 421 422 422 422 422 422 422 422 422 422 422 423 423 424 424 425 426 426 427 427 427 428 428 428 428 428 428 428 429 429 430 430 431 431 431 432 432 433 433 434 434 434 435 435 436 437 438 439 440 440 441 442 443 443 443 443 442 442 441 441 441 440 440 440 440 441 441 442 441 441 442 443 444 444 445 445 445 446 447 447 448 449 451 452 454 455 457 459 461 462 463 464 466 467 468 470 472 474 476 477 479 480 482 485 487 488 489 490 492 495 497 498 501 503 505 507 509 511 513 515 516 516 518 519 520 522 523 524 525 526 528 529 530 531 531 532 532 533 534 534 534 534 534 534 534 535 535 534 534 535 535 534 534 533
208 209 210 212 213 214 215 216 217 218 220 220 221 222 223 224 226 227 228 229 231 232 234 235 236 237 238 239 240 241 242 243 243 244 245 246 246 247 247 248 248 249 249 249 249 249 249 248 248 247 246 247 246 241 240 239 238 236 235 235 236 237 241 244 243 243 246 249 252 255 259 262 266 271 275 280 282 286 289 295 300 302 305 309 313 316 322 325 326 330 334 338 341 344 347 350 352 354 356 358 360 362 364 365 368 369 371 373 374 375 374 373 374 374 375 376 377 378 379 380 380 380 380 381 382 383 384 385 387 389 391 392 396 397 397 398 400 403 404 405 406 406 407 408 411 412 412 412 412 413 414 415 416 417 417 418 419 419 420 420 420 420 420 421 421 421 421 421 422 422 422 423 423 423 423 423 423 423 423 424 424 425 425 426 426 427 427 427 427 428 429 429 429 429 429 429 430 430 430 431 431 432 432 433 433 434 434 434 435 435 435 436 437 438 439 439 440 441 442 443 444 444 444 444 444 443 443 443 442 442 442 442 442 442 443 443 443 442 443 443 444 445 445 445 445 446 447 447 448 449 451 452 454 455 457 459 462 462 462 464 466 467 468 470 471 473 474 476 477 482 486 487 488 489 489 490 491 493 495 497 499 502 504 506 509 510 512 514 516 516 518 519 520 522 523 524 525 526 528 529 529 530 531 531 532 533 533 533 533 533 533 533 533 534 534 534 533 534 534 534 533 533
206 207 208 210 211 212 213 214 215 216 217 218 220 220 221 222 224 225 226 227 228 230 231 232 233 235 236 236 237 238 240 240 241 243 242 243 244 245 245 245 246 246 246 246 246 246 246 245 245 245 244 243 239 234 232 233 233 232 232 235 238 241 243 246 247 248 249 251 253 256 259 263 267 271 275 280 284 288 293 297 301 304 307 311 315 319 324 326 328 331 335 338 342 345 348 351 353 355 357 359 361 362 364 366 368 369 370 370 371 376 376 375 375 375 376 377 378 379 380 381 382 382 382 383 384 385 386 386 388 390 392 393 395 396 397 398 400 402 403 404 405 406 407 408 410 411 411 411 412 413 414 415 416 416 417 418 419 419 419 420 420 420 421 421 421 421 421 421 422 422 423 423 423 423 423 423 423 423 424 424 425 426 426 427 427 428 428 428 428 428 429 430 429 429 429 430 430 431 431 432 432 433 433 434 434 434 435 435 435 436 436 437 438 438 439 440 441 442 443 444 445 445 445 446 446 445 445 446 445 444 444 444 444 444 444 445 445 444 444 444 445 446 447 447 447 447 447 448 450 450 451 452 454 455 457 460 462 462 462 463 465 467 468 469 471 472 474 476 478 484 487 487 487 488 489 489 491 493 494 496 498 501 503 506 507 509 511 512 514 516 518 519 520 522 523 524 525 526 527 528 529 530 530 531 531 532 532 532 532 532 533 532 532 533 533 533 532 533 533 533 533 532
204 206 207 208 209 210 211 212 213 214 215 216 217 218 220 221 221 223 224 225 226 227 228 230 231 232 233 234 235 236 237 238 239 239 240 241 242 242 242 243 244 245 244 244 243 243 244 243 243 244 243 242 232 228 227 228 228 230 232 235 239 242 243 246 247 248 249 251 254 257 261 264 268 272 277 281 286 290 295 299 302 305 309 313 317 321 325 327 329 333 336 340 343 346 350 352 355 356 359 360 362 363 364 366 369 370 370 371 372 375 377 377 376 377 378 379 380 380 381 382 383 384 384 385 386 387 388 389 390 392 393 394 395 396 397 398 400 401 402 403 404 405 406 407 409 410 411 412 412 413 414 415 416 416 417 418 418 419 419 419 420 420 421 421 422 422 422 422 422 422 423 424 424 424 424 424 424 424 424 425 426 426 427 427 428 428 428 428 428 429 429 429 429 429 430 430 431 431 432 432 433 433 434 434 435 435 436 436 436 436 437 438 438 439 440 441 442 443 444 445 446 446 446 447 447 448 448 448 448 447 446 446 446 446 446 446 447 446 446 446 446 447 448 448 448 447 449 450 451 452 453 453 454 455 458 460 461 462 462 463 465 466 468 469 470 471 473 477 479 483 483 487 487 487 488 488 490 492 494 496 498 501 503 505 507 508 510 512 513 515 516 518 520 522 523 524 525 526 527 527 528 529 530 530 531 531 531 531 531 531 532 532 531 532 532 532 532 532 532 532 532 532
203 204 205 206 207 208 209 210 211 212 213 214 215 217 218 219 220 221 222 223 224 225 226 228 229 230 231 232 233 234 235 235 236 237 238 239 239 239 240 241 241 242 242 241 241 241 242 241 240 239 240 230 226 228 228 229 233 233 234 236 239 242 243 245 246 247 248 250 255 258 262 265 269 274 279 282 287 291 295 300 303 307 311 314 318 322 326 328 331 334 338 341 345 349 351 353 356 358 360 361 363 364 365 367 369 370 371 371 372 375 376 377 377 378 378 379 380 381 381 383 383 384 385 386 386 387 388 389 390 391 392 394 395 396 397 398 399 400 401 402 404 405 405 407 408 409 410 411 411 412 413 415 415 416 417 418 418 419 419 419 420 420 421 421 422 422 422 422 423 423 423 424 424 424 424 424 425 425 425 426 426 427 428 428 429 429 429 429 429 429 430 430 430 430 431 431 432 432 433 433 433 434 434 435 436 436 436 437 437 437 438 438 439 440 440 441 442 443 444 445 446 447 448 448 449 451 450 450 450 449 449 448 448 448 448 448 449 448 448 447 448 449 449 450 449 449 451 452 453 454 454 455 455 456 457 459 460 461 461 462 464 466 468 469 470 471 472 474 479 481 483 484 486 486 487 488 490 492 494 496 498 501 503 504 506 508 509 511 512 514 515 517 519 522 523 523 524 525 526 527 528 528 529 529 530 530 530 530 530 530 530 531 530 531 531 531 531 531 531 531 531 531
201 202 203 204 205 206 207 208 209 210 211 213 214 215 216 217 218 219 220 221 222 223 224 226 227 228 229 230 231 232 233 233 234 235 236 236 237 237 237 238 238 239 238 238 238 238 235 234 233 233 229 224 226 230 232 234 235 236 235 238 240 241 243 244 245 247 251 250 255 258 262 265 271 276 281 284 288 292 296 301 305 308 312 316 319 322 328 329 332 336 339 343 347 350 352 355 357 358 360 363 364 365 366 367 369 370 370 371 372 374 376 377 377 378 378 379 380 381 382 383 384 385 385 386 387 388 388 389 390 391 392 393 395 396 397 398 399 400 401 402 403 404 406 407 409 409 410 410 411 412 413 414 415 416 417 417 418 418 419 419 420 420 421 422 422 422 422 423 423 424 424 424 425 425 425 425 425 425 426 426 427 428 429 429 429 429 429 429 429 430 430 430 430 431 431 432 432 433 433 434 434 435 435 436 436 437 437 437 438 438 438 439 440 440 441 441 442 443 444 445 446 448 449 450 451 451 451 451 451 451 451 451 450 450 450 450 450 450 450 449 449 450 451 450 450 451 453 454 455 455 456 457 456 456 457 458 459 460 461 461 463 464 465 467 468 470 471 473 478 480 481 483 484 486 486 487 489 491 494 496 498 500 502 504 505 507 509 510 511 513 514 516 517 520 522 523 524 525 525 526 527 528 528 529 529 529 529 529 529 529 529 530 530 530 530 530 530 530 530 530 530 529
200 201 202 203 204 205 206 207 208 209 210 211 212 213 214 215 216 217 218 219 221 221 223 224 225 226 227 228 229 230 231 232 233 233 234 234 235 235 235 236 236 236 236 235 234 233 231 228 226 225 224 222 226 230 232 235 236 237 237 239 240 241 242 243 244 250 252 252 255 259 263 267 272 278 282 286 290 294 298 303 306 309 313 317 321 324 328 331 334 337 341 345 349 351 354 356 357 359 361 363 366 366 366 366 368 369 370 371 372 374 375 376 377 378 378 379 380 381 382 383 384 385 386 386 387 388 388 389 390 391 392 393 394 396 397 398 398 400 400 401 402 404 406 408 409 409 409 410 410 411 412 413 414 415 416 417 418 418 419 419 420 420 421 422 422 422 423 423 424 424 424 425 425 425 426 426 426 426 427 427 428 429 429 430 430 430 430 430 430 430 431 431 431 431 432 432 433 433 434 434 435 435 436 436 437 437 438 438 438 439 439 439 440 441 441 442 442 443 444 445 447 448 449 450 451 451 452 452 452 452 451 451 451 451 451 452 452 453 452 451 451 451 451 452 452 453 455 456 456 457 457 457 457 457 457 459 460 459 461 463 463 466 466 466 468 469 471 474 477 478 480 481 483 484 485 486 489 491 493 496 498 500 501 503 505 506 508 509 511 512 513 515 516 518 521 522 523 524 525 526 527 527 527 528 528 528 528 528 528 528 528 529 529 529 529 529 529 529 529 529 528 529
199 200 201 202 203 204 205 206 206 207 208 209 210 211 212 213 214 216 217 217 219 220 221 222 223 224 225 226 227 228 229 230 231 231 232 232 233 233 233 234 234 234 234 232 229 228 226 224 221 220 221 224 228 231 233 234 236 238 238 239 239 240 241 243 244 250 252 255 257 261 265 269 274 279 283 288 292 297 300 304 307 311 314 318 322 326 330 332 336 340 344 348 350 353 355 356 358 360 361 363 366 366 366 366 367 369 370 371 372 374 375 377 377 378 378 379 380 381 383 383 384 385 386 387 387 388 388 389 390 391 392 393 394 395 397 398 398 399 400 401 403 404 405 407 408 408 408 409 410 411 412 413 414 415 416 417 417 418 419 419 420 421 421 421 422 422 423 423 424 424 425 425 425 426 426 426 426 427 427 428 429 429 430 430 430 430 430 430 430 431 431 431 431 432 432 433 433 434 434 435 435 436 437 437 437 438 438 439 439 439 440 440 440 441 442 442 443 443 444 446 447 448 449 450 451 451 452 452 452 452 452 452 452 452 453 453 454 455 454 454 454 454 454 453 454 455 457 457 458 458 458 458 458 458 458 458 460 459 461 464 465 467 467 467 468 470 471 473 475 477 478 480 481 483 484 486 488 490 492 495 498 499 501 502 504 505 507 508 510 511 512 514 515 517 519 521 522 523 523 524 525 526 526 527 527 527 527 527 527 527 527 528 528 528 528 528 528 528 528 528 528 529
197 199 200 201 201 202 204 204 205 206 207 208 209 210 211 212 213 214 215 216 217 218 219 220 221 222 223 224 225 226 227 228 228 229 230 230 231 231 231 232 232 232 231 228 225 223 221 221 221 222 225 227 231 232 233 234 236 238 238 239 239 240 242 243 246 251 254 256 260 263 268 273 276 281 285 291 295 298 302 305 308 312 316 320 324 326 330 335 340 343 346 350 352 353 355 356 358 360 362 363 365 366 366 366 367 368 370 370 371 373 375 377 377 378 378 379 380 381 382 383 384 385 386 387 387 388 389 389 390 391 392 393 394 394 395 397 398 399 400 401 403 403 404 405 406 407 408 409 410 411 412 413 414 415 415 417 417 418 419 420 420 421 421 421 422 423 423 424 424 425 425 425 426 426 426 427 427 428 428 429 429 430 430 431 430 430 430 430 431 431 431 432 432 432 433 433 434 435 435 436 436 437 437 438 438 439 439 439 439 439 440 440 441 441 442 442 443 444 445 446 448 448 449 450 451 451 452 453 453 453 453 453 453 454 454 455 455 455 455 455 455 456 456 456 456 457 458 459 459 459 459 459 459 459 459 459 459 461 462 464 466 467 468 468 469 471 471 472 474 475 477 479 480 482 484 485 487 489 491 494 497 498 500 501 503 504 506 507 509 510 512 513 514 516 518 519 520 521 522 523 524 525 525 525 526 526 526 526 526 526 526 527 527 527 527 527 527 527 527 528 528 529
196 198 198 199 200 201 202 203 204 205 206 207 208 209 209 211 212 213 214 215 216 217 217 219 220 221 222 222 224 225 225 226 226 227 228 228 228 229 229 229 230 231 228 226 223 221 218 221 225 227 230 230 231 232 233 234 236 238 239 239 239 241 242 244 248 252 255 259 262 266 269 274 279 284 288 293 296 300 303 307 311 314 318 321 325 329 332 336 340 344 347 351 352 354 355 357 358 360 361 363 365 366 366 365 366 367 369 370 371 373 374 376 377 377 378 379 380 381 382 383 384 385 386 387 387 388 389 389 390 390 391 392 393 394 395 396 398 398 399 400 402 402 403 404 405 406 407 408 410 411 412 413 414 415 415 417 417 418 419 420 420 421 421 422 422 423 423 424 424 425 425 426 426 426 427 427 428 428 428 430 430 430 430 431 430 431 431 431 431 431 431 432 432 433 433 434 434 435 436 436 437 437 439 439 439 439 439 439 439 440 440 441 441 442 443 444 446 446 447 447 448 448 449 450 450 451 452 453 453 453 453 454 454 454 455 455 456 456 456 456 456 456 456 457 458 459 460 460 460 460 460 460 460 460 460 460 460 462 464 466 467 468 467 467 469 471 472 472 474 475 477 479 480 482 482 485 488 489 490 493 497 498 499 501 502 503 505 506 508 509 510 511 513 515 517 518 519 520 520 521 522 524 524 524 524 525 525 525 525 525 525 525 526 526 526 526 526 527 527 528 528 529
195 196 197 198 199 200 201 202 203 204 205 206 207 208 208 209 210 211 212 213 214 215 216 217 218 219 220 221 222 222 223 224 225 225 226 226 226 227 227 227 227 230 229 226 224 221 225 224 227 229 230 231 231 232 233 234 236 238 240 240 242 243 245 247 251 255 258 261 264 268 272 275 283 287 291 294 298 301 306 309 312 316 320 323 327 332 335 337 340 343 347 350 352 354 355 357 359 360 361 363 364 365 365 365 366 367 368 369 370 372 373 376 376 377 378 379 380 381 382 383 384 385 386 386 387 388 388 389 389 390 390 391 393 393 394 395 396 397 398 400 401 401 403 404 405 406 407 408 409 410 411 413 413 415 415 416 417 418 418 419 420 420 421 422 422 423 423 424 424 425 425 426 426 427 427 428 428 428 429 429 430 430 431 431 431 431 431 431 431 431 431 432 432 433 433 434 434 435 436 437 438 438 439 439 439 439 439 440 440 441 441 442 442 442 444 446 447 448 448 447 448 449 449 450 450 451 452 453 454 454 454 454 454 455 456 456 456 457 457 457 457 457 458 459 460 461 461 461 461 461 461 461 461 461 461 461 461 461 464 466 468 467 467 468 469 471 473 473 474 475 477 479 480 480 481 484 487 490 491 492 496 497 498 499 501 502 503 505 506 507 509 510 512 514 516 517 518 518 519 520 522 523 523 523 523 523 524 524 524 524 524 524 525 525 525 526 526 527 527 528 528 528
195 195 196 197 198 199 200 201 202 203 204 204 206 207 207 208 209 210 211 212 213 214 215 215 217 218 219 219 220 221 221 222 223 223 224 224 224 224 224 224 224 226 226 226 224 225 225 227 228 229 230 231 232 233 234 235 236 238 240 241 244 244 246 250 253 257 260 265 269 272 275 280 285 289 293 296 299 303 308 311 314 318 321 325 328 332 336 338 341 344 347 350 352 354 355 357 358 360 361 363 364 364 365 366 367 367 368 369 370 371 373 375 377 377 378 380 381 382 383 384 384 385 385 386 387 387 388 388 389 390 390 391 392 392 393 394 395 397 398 399 400 401 402 403 405 406 406 407 409 410 411 412 413 414 415 416 417 417 418 419 419 420 421 422 422 423 423 424 424 425 425 426 426 427 427 428 428 428 429 429 430 430 431 431 431 431 431 431 432 432 432 432 433 433 434 434 435 436 436 437 438 439 439 439 440 440 440 441 441 441 442 442 443 443 445 447 448 448 448 448 448 449 450 450 451 451 452 452 453 453 454 454 455 456 456 457 457 457 457 458 458 458 459 460 461 462 462 462 462 462 463 463 463 462 462 462 462 462 464 466 466 466 467 468 469 471 473 474 474 475 477 478 478 479 481 484 487 489 490 491 494 496 497 498 499 500 502 503 504 506 508 510 511 513 515 516 518 518 518 519 520 522 522 522 522 522 522 523 523 523 523 524 524 525 525 526 526 526 527 527 528 529
194 195 196 196 197 198 199 200 201 201 202 203 204 205 206 207 207 208 210 211 212 213 213 214 215 216 217 218 218 219 220 220 221 221 221 221 222 222 221 220 219 219 223 222 224 225 226 227 228 229 230 231 232 233 234 235 236 238 240 243 246 246 249 253 257 260 264 269 272 275 277 282 287 290 294 298 301 305 309 313 317 320 323 326 330 333 337 339 342 345 348 350 352 353 355 357 358 360 361 362 363 364 365 366 367 367 368 369 369 371 373 375 377 377 378 380 381 382 383 384 384 384 385 386 387 387 388 389 389 390 390 391 392 392 393 394 395 396 397 398 399 400 402 403 404 405 406 407 408 409 410 411 412 414 414 415 416 417 418 418 419 420 421 422 422 423 423 424 424 425 425 426 426 426 427 428 428 428 429 429 430 431 431 431 431 432 432 432 432 432 432 433 433 434 434 435 435 436 437 438 438 439 440 440 441 441 441 441 441 442 442 443 443 444 445 447 448 448 448 448 449 449 450 450 451 451 452 452 453 454 454 455 456 456 457 457 458 458 458 458 459 460 460 461 462 463 464 464 464 464 464 464 464 463 463 464 464 464 464 465 466 467 468 469 470 471 473 474 475 476 476 477 477 478 480 482 485 488 489 490 493 494 495 496 498 499 500 502 504 505 507 509 511 512 514 515 517 518 518 518 519 520 521 521 521 521 521 522 522 523 523 523 524 524 525 526 526 526 528 530 530 531
194 195 195 196 196 197 198 199 200 201 202 203 203 204 205 206 207 207 208 210 210 211 212 213 214 215 215 216 217 218 218 218 218 219 219 218 219 218 218 217 215 217 218 223 224 225 226 227 228 229 230 231 232 233 234 235 236 238 242 245 248 249 252 256 261 265 269 273 274 278 280 285 288 293 297 300 304 307 310 315 318 322 325 328 331 335 337 340 342 345 347 350 351 353 354 356 358 359 360 361 362 364 365 366 367 367 368 368 369 371 373 375 377 376 377 379 380 382 383 384 384 385 385 386 387 388 388 389 390 390 391 391 392 392 393 394 395 396 397 398 399 400 402 403 403 404 405 406 407 408 410 411 412 413 414 415 416 416 417 418 418 419 420 421 422 423 423 424 424 425 425 426 425 426 427 428 428 429 429 429 430 431 431 431 432 432 432 432 432 433 433 433 434 434 434 435 436 437 437 438 439 439 440 441 441 441 441 442 442 443 443 444 444 445 445 448 449 448 448 449 449 450 450 451 451 452 452 452 453 454 455 456 456 457 457 458 458 459 459 459 460 461 462 462 463 464 465 465 465 465 465 465 465 465 465 465 465 465 465 466 467 468 469 470 471 472 473 474 475 475 477 477 477 477 479 481 484 485 487 489 491 492 494 495 496 497 499 501 503 504 506 508 510 511 513 514 517 518 518 518 518 519 519 520 520 521 521 522 522 523 523 523 524 524 525 526 526 528 530 532 532 533
193 194 195 195 196 197 197 198 199 200 201 201 202 203 204 205 206 206 207 209 209 210 211 212 213 214 214 215 216 216 216 216 215 215 215 215 214 215 215 215 214 215 218 223 224 225 226 227 229 230 231 232 233 234 235 235 237 240 243 247 251 253 257 258 265 268 271 275 278 281 284 288 292 295 300 303 306 309 313 317 320 323 326 329 333 336 338 341 343 345 347 349 351 353 354 355 357 358 360 361 362 363 364 365 366 367 367 368 369 371 372 374 376 376 377 379 380 382 383 384 384 384 385 386 387 387 388 388 389 390 391 391 392 392 393 393 395 395 396 398 399 400 401 402 403 404 405 406 407 408 409 410 411 413 414 414 415 416 417 417 418 419 420 421 422 423 423 424 424 425 425 425 425 426 427 427 428 429 429 430 430 431 431 431 432 432 433 433 433 433 434 434 434 435 435 436 436 437 438 438 439 440 440 441 441 442 442 442 443 443 444 444 445 445 446 448 449 449 449 449 449 450 450 451 451 452 452 453 454 455 455 456 457 458 458 459 459 459 460 461 461 462 463 463 465 465 466 466 466 466 466 466 466 466 466 466 466 467 467 467 468 469 470 471 472 473 474 475 476 476 478 478 478 478 480 482 484 485 486 489 490 490 492 493 495 497 498 500 502 504 505 507 509 510 512 514 517 518 518 518 519 519 519 520 520 521 521 521 522 522 523 524 525 525 527 527 529 531 532 533 534 535
193 193 194 195 196 196 197 198 199 199 200 200 201 202 203 204 205 205 206 207 208 209 210 211 212 213 214 214 214 215 213 213 212 211 212 213 214 214 214 214 215 217 220 223 225 225 226 227 229 230 231 232 233 234 235 236 239 242 246 250 255 256 260 263 267 269 272 277 280 283 287 291 294 297 301 304 310 311 314 318 321 324 327 330 333 336 338 341 343 345 347 349 351 352 353 355 356 358 359 360 361 362 363 364 365 366 367 367 369 370 372 374 375 377 377 379 381 382 384 384 384 384 385 386 387 387 387 389 389 390 390 391 391 392 392 393 394 395 396 397 398 399 400 401 402 403 404 405 406 407 408 410 411 412 414 414 415 416 416 417 418 419 420 421 422 423 423 423 424 424 425 425 425 426 427 427 428 429 429 430 430 431 431 432 432 433 433 433 434 434 434 435 435 435 435 436 437 438 438 439 440 440 440 441 442 442 443 443 443 444 445 445 446 446 447 448 449 449 449 449 450 450 451 451 451 452 452 453 454 455 456 457 458 458 459 459 460 460 461 462 462 463 464 465 466 466 467 467 467 467 467 467 467 467 468 468 468 469 469 469 470 470 471 472 473 474 475 476 477 477 478 480 480 481 482 484 484 484 485 487 488 489 492 493 494 496 497 499 501 503 505 506 508 509 512 514 517 518 518 518 519 519 519 520 520 521 520 521 522 523 524 526 526 527 528 529 531 532 534 535 536 537
193 193 194 195 195 196 197 198 198 199 199 200 200 201 202 203 204 204 205 206 207 208 209 210 211 212 211 212 212 211 211 210 209 208 208 213 216 218 215 218 218 220 221 223 224 225 226 227 229 230 232 233 234 235 236 237 241 245 249 253 256 260 263 267 269 272 276 281 282 285 289 294 297 300 303 307 311 313 316 320 322 325 328 331 333 336 338 340 342 345 347 349 350 351 353 354 356 358 359 360 361 362 363 364 364 365 366 367 368 370 372 373 375 376 377 378 380 382 384 383 384 384 385 386 386 387 387 389 389 389 390 390 391 392 392 393 394 395 396 396 397 398 400 401 401 402 403 404 405 406 408 409 410 411 413 414 414 415 416 417 418 419 420 421 422 422 423 423 424 424 425 425 425 426 426 427 428 429 430 430 430 431 431 432 432 433 433 433 434 434 435 435 436 436 436 436 437 438 439 439 440 441 441 442 442 443 443 444 444 445 445 446 446 447 447 449 449 449 449 450 450 450 451 451 452 452 453 454 454 455 456 457 458 459 459 460 460 461 462 463 464 464 465 466 467 467 468 468 468 468 468 468 469 469 469 470 470 471 471 471 471 472 472 473 475 476 477 478 478 479 480 481 482 483 484 483 484 486 486 487 488 489 491 493 494 496 497 498 500 502 504 505 507 509 512 514 517 518 518 519 519 519 520 520 521 521 521 522 524 525 526 528 529 530 531 531 532 534 535 537 538 539
192 193 194 195 195 196 197 197 198 198 199 199 199 200 201 202 203 203 204 205 205 206 207 208 210 210 209 209 209 210 209 207 205 207 214 216 218 220 220 220 220 221 222 223 224 225 226 228 229 230 232 233 234 235 237 240 243 248 252 253 257 263 265 268 272 276 280 283 284 288 293 296 299 302 305 308 311 314 318 322 323 326 329 331 334 336 338 340 342 344 346 348 349 351 352 354 356 357 358 359 360 361 362 363 364 365 365 367 368 369 371 372 374 376 377 378 379 381 383 383 384 384 385 386 386 387 388 388 388 389 389 390 390 391 392 393 393 394 395 396 397 398 399 400 401 402 402 403 404 406 407 408 409 411 412 414 414 415 415 416 417 418 419 420 422 422 423 423 423 424 425 425 425 426 426 427 428 429 430 430 430 431 431 432 432 433 433 434 434 434 435 436 436 436 437 437 438 439 439 440 441 441 442 443 443 444 444 444 445 445 446 447 447 448 448 449 449 450 450 450 450 450 451 451 452 452 453 454 455 456 457 457 458 459 460 460 461 462 463 464 465 465 467 468 468 469 469 469 470 470 470 470 470 471 471 471 472 473 473 473 473 474 474 475 476 477 478 479 480 481 483 483 482 484 484 485 485 485 486 487 488 490 491 493 495 496 497 499 500 501 503 505 507 510 514 516 517 518 518 518 519 519 520 521 522 523 524 525 526 528 529 530 531 532 533 534 535 535 537 538 540 541
192 193 194 195 195 196 196 197 197 198 198 198 198 199 200 201 203 203 203 204 204 204 205 207 208 208 208 208 209 210 208 208 208 208 213 217 220 220 220 221 221 221 222 223 223 225 226 228 229 231 232 234 235 236 239 242 246 249 253 256 259 263 267 271 275 278 281 285 287 291 295 298 301 304 307 309 312 315 320 322 324 327 329 331 334 336 338 341 342 344 346 347 349 350 351 354 355 356 357 358 359 360 361 362 363 364 365 366 367 368 370 372 373 375 377 378 379 380 382 383 383 384 384 385 386 386 387 387 388 388 389 389 390 391 391 392 393 393 394 395 396 397 398 399 400 401 402 402 404 405 406 408 409 410 412 413 414 415 415 416 417 418 419 420 421 422 422 422 423 423 424 425 425 426 426 427 427 428 429 430 430 431 431 432 432 433 433 434 434 434 435 436 436 436 437 437 438 439 440 441 441 442 443 444 444 445 445 445 446 446 447 448 448 449 449 449 450 450 450 450 450 450 450 451 452 453 453 454 455 456 457 457 458 459 460 460 461 462 464 465 466 466 467 469 470 471 471 471 471 471 472 472 472 473 473 473 474 475 475 475 475 475 476 476 477 478 479 480 482 483 484 485 484 483 484 485 486 487 487 488 489 490 492 493 495 497 498 500 501 502 504 506 510 513 515 516 518 518 518 519 519 519 520 522 524 526 527 528 529 530 531 532 534 535 535 536 537 538 538 540 541 543
192 193 194 195 195 196 196 197 197 197 197 197 197 198 199 200 202 204 204 203 204 204 204 203 206 207 206 207 207 204 205 208 209 209 211 216 219 220 220 221 221 221 221 222 223 225 226 228 229 231 233 234 235 238 241 244 247 251 256 258 262 266 270 272 276 279 283 287 290 293 297 301 302 306 308 311 313 316 319 322 326 327 329 331 334 336 338 340 341 343 345 346 348 349 351 353 354 355 356 357 358 359 360 362 363 363 364 365 367 368 369 371 373 374 376 377 378 379 380 382 383 383 384 384 385 386 386 387 388 388 388 389 390 391 391 391 392 393 394 394 395 396 397 398 399 400 401 402 403 404 406 407 408 409 411 413 414 414 415 416 416 417 418 419 420 421 421 422 423 424 424 425 425 425 426 427 427 427 428 429 430 431 431 432 432 433 433 433 434 435 436 436 437 437 438 438 438 439 440 441 442 443 443 444 445 445 446 446 447 447 448 449 449 450 450 450 450 450 451 451 451 451 451 451 452 453 454 455 455 456 457 458 458 459 460 461 461 463 464 465 467 467 468 469 471 472 472 472 472 472 473 474 474 474 475 475 476 477 477 476 477 477 478 478 479 479 480 482 483 485 486 487 486 486 485 485 486 487 488 489 491 492 494 495 497 499 500 502 503 504 506 508 512 515 516 517 517 518 518 519 519 519 522 524 527 528 529 530 531 532 534 535 536 537 538 538 539 540 541 541 543 544
192 192 193 194 195 195 196 196 196 196 196 196 197 197 198 199 201 202 204 203 202 200 200 199 202 203 205 206 204 204 207 210 211 211 212 214 218 219 219 219 220 220 221 222 223 225 226 228 229 231 233 235 237 241 244 247 251 254 257 260 264 269 272 274 277 281 284 288 292 295 298 301 304 306 310 313 315 317 320 322 325 327 329 331 333 335 337 339 341 342 344 346 347 349 351 352 353 354 355 356 357 359 360 361 362 363 364 365 366 367 368 370 372 373 375 376 377 378 379 381 382 383 384 384 385 385 386 386 387 388 388 389 390 390 390 391 391 392 393 394 395 395 396 397 398 399 400 401 402 404 405 406 408 409 410 412 414 414 414 415 415 416 417 419 420 420 421 421 422 423 424 424 425 425 426 426 427 427 428 429 430 430 431 432 433 433 433 433 434 435 436 436 437 438 438 439 439 440 440 441 442 443 443 444 445 446 447 447 447 448 449 449 450 451 451 451 451 451 452 452 451 451 451 451 452 453 454 455 456 456 457 458 459 459 460 461 462 463 464 465 467 468 469 470 472 472 473 473 473 473 474 474 475 476 476 476 477 478 478 478 479 479 480 480 480 481 482 484 485 486 487 489 488 488 487 487 488 489 490 492 493 494 496 498 498 501 502 504 505 506 508 510 514 516 517 517 518 518 518 518 519 521 524 527 530 531 532 533 534 535 536 537 538 540 540 541 542 542 543 544 544 545
191 192 192 193 194 195 195 196 196 196 196 196 196 196 197 198 200 200 202 201 197 198 203 204 202 203 206 208 208 206 210 213 212 212 214 215 217 218 219 219 219 220 222 222 224 225 226 228 229 231 233 236 239 243 246 249 253 255 258 262 265 270 274 276 279 282 286 289 293 296 300 303 305 307 310 314 317 318 319 323 325 327 329 332 333 335 336 339 340 342 343 345 347 348 349 351 352 353 354 355 357 358 359 360 361 362 363 364 365 366 368 370 371 372 374 375 376 377 378 379 381 382 384 384 384 385 385 386 387 388 388 388 389 389 390 390 391 391 392 393 394 395 396 397 399 399 399 400 402 403 404 406 407 408 410 411 413 414 414 415 415 416 417 418 419 419 420 421 422 423 424 424 424 425 425 426 427 427 428 429 429 430 431 431 432 433 433 433 434 435 435 437 437 438 438 439 439 440 441 442 442 443 444 445 445 446 447 448 448 449 449 450 451 451 452 452 452 452 453 453 452 452 452 452 452 453 454 455 456 457 457 458 459 460 460 461 462 463 464 466 467 468 470 471 472 473 473 474 474 474 475 475 476 477 477 477 477 478 479 480 480 481 481 482 482 483 483 485 486 487 489 490 490 490 489 489 490 491 492 494 495 496 498 500 501 502 504 506 507 509 511 513 515 516 517 517 518 517 518 520 525 525 527 530 533 534 535 535 536 537 538 540 541 542 543 543 544 545 545 546 547 548
190 191 192 193 193 194 195 196 196 196 196 196 195 195 195 197 197 198 199 196 199 201 207 207 207 209 210 210 210 210 212 214 214 214 215 216 217 218 218 218 219 220 222 223 224 225 226 228 229 231 233 236 241 244 247 250 254 257 261 264 267 271 274 277 280 284 287 290 294 297 301 303 306 308 311 314 315 318 320 322 325 327 328 331 333 334 336 339 340 341 343 344 346 347 349 350 351 352 353 354 355 356 358 359 360 361 362 363 365 366 367 369 370 371 373 374 375 376 377 378 379 381 382 383 384 385 385 386 386 387 387 388 388 389 389 390 390 391 391 392 393 394 395 397 399 399 399 400 401 402 403 405 406 407 409 410 412 413 414 414 415 415 416 418 418 419 420 421 422 422 423 423 424 424 425 426 426 427 427 428 429 429 430 431 432 433 433 433 433 435 436 437 437 437 438 439 440 441 441 442 442 443 444 445 446 446 447 448 449 450 450 451 452 452 452 453 453 453 453 453 453 453 453 452 453 454 454 455 456 457 458 459 459 460 461 462 463 463 465 466 467 469 470 471 472 473 473 474 475 475 476 476 477 477 477 477 478 478 479 481 481 482 482 483 483 484 485 486 487 488 490 491 492 491 490 490 492 493 494 496 497 498 500 502 504 505 506 508 509 511 513 515 516 516 516 517 517 519 521 526 528 528 530 533 535 536 537 538 539 540 541 542 543 544 545 546 547 547 548 549 549 551
190 191 192 192 192 193 194 194 196 196 196 196 195 195 196 197 197 198 201 200 200 202 207 208 208 209 210 211 211 212 212 214 214 215 215 216 217 217 217 218 219 220 221 223 224 225 226 228 229 231 234 237 241 243 247 251 254 258 262 265 268 271 274 277 280 285 289 292 294 298 301 304 307 309 311 313 315 317 320 322 324 329 331 332 332 334 336 338 339 340 342 343 345 346 348 349 350 351 352 353 355 356 357 358 359 361 362 363 364 365 366 368 369 370 372 373 374 375 376 377 378 380 380 382 384 384 384 385 386 386 386 387 387 388 388 389 390 390 391 391 392 393 394 396 398 399 400 400 401 402 403 404 405 407 408 410 411 412 413 414 414 415 416 417 417 418 419 420 421 422 423 423 423 424 424 426 426 427 428 428 429 429 430 431 432 432 432 433 433 435 436 436 437 437 438 439 440 441 442 442 443 444 444 445 446 447 448 449 449 450 451 452 452 452 453 453 453 453 453 454 453 453 453 453 454 455 455 455 456 457 458 459 460 460 461 462 463 464 465 466 468 469 470 472 473 473 474 474 475 476 476 477 477 477 478 478 479 479 480 481 482 483 483 484 484 485 486 487 488 489 491 491 492 492 492 492 493 495 496 498 499 501 502 504 506 507 508 510 511 513 514 515 516 516 516 517 518 521 525 532 531 531 533 536 538 539 540 541 542 543 543 544 546 547 548 548 549 550 550 551 552 552
190 191 192 192 192 194 195 195 195 196 196 197 198 199 200 200 199 202 203 203 204 205 207 207 208 209 210 210 211 212 212 213 214 214 215 216 216 217 218 218 219 220 222 223 224 225 226 228 230 232 235 238 240 243 247 251 255 259 263 266 268 271 274 277 281 285 289 292 295 297 301 303 306 309 311 314 315 317 319 322 324 328 333 334 334 334 336 338 339 339 341 343 344 346 347 348 349 350 352 353 354 355 356 357 358 359 361 362 363 364 366 367 368 369 371 373 374 375 376 377 377 378 379 381 383 383 383 384 385 385 385 386 386 387 388 388 389 390 390 391 391 393 394 395 397 397 398 399 400 402 403 404 405 406 407 409 411 412 413 414 414 415 415 416 417 418 419 420 421 421 422 423 423 424 424 425 426 427 427 428 428 429 430 431 431 432 432 433 433 434 435 436 436 437 438 439 440 441 442 443 444 444 445 446 447 447 448 449 450 451 452 452 453 453 453 454 453 454 454 454 454 454 453 454 455 456 456 456 457 457 458 459 460 461 462 462 463 464 465 466 468 469 471 472 473 474 474 475 475 476 477 477 478 478 478 479 479 480 482 482 483 484 484 485 485 486 487 488 489 490 491 492 493 493 493 494 495 497 498 500 501 503 504 506 508 509 511 512 513 513 514 515 516 516 517 518 521 524 528 532 535 534 536 538 541 541 542 543 544 545 546 547 548 549 550 551 552 552 552 553 554 554
190 192 192 193 194 195 196 197 196 196 197 198 200 199 199 200 201 202 203 203 204 205 206 207 208 208 209 210 211 211 212 213 213 214 215 215 216 217 217 218 219 220 222 223 224 225 227 228 230 232 235 238 240 243 247 254 255 259 263 266 268 271 274 278 281 285 289 292 296 298 301 303 306 310 312 313 314 317 319 322 324 326 331 332 333 333 335 337 338 339 340 342 343 344 346 347 348 349 351 352 353 354 355 356 358 359 360 361 362 364 365 366 367 368 370 372 372 373 374 375 376 378 379 380 382 382 382 383 384 384 384 385 386 386 387 388 389 390 390 390 391 392 393 394 395 397 398 399 400 401 402 403 404 405 407 408 410 411 412 413 414 414 415 416 417 417 418 419 420 421 422 422 423 423 424 424 425 426 426 427 428 429 429 431 431 432 432 433 433 434 435 435 436 437 438 439 440 441 442 443 444 445 446 446 447 447 448 449 450 451 452 453 453 453 454 454 454 454 454 455 455 455 455 455 456 457 457 458 458 458 458 459 460 461 462 463 464 465 466 467 468 469 471 472 473 474 474 475 476 476 477 478 478 478 479 480 480 481 483 483 484 484 485 486 487 487 488 489 490 491 491 492 493 493 494 496 497 498 500 502 503 505 506 508 510 512 513 514 514 514 515 515 516 517 519 521 523 527 530 534 537 537 539 541 543 544 545 546 547 548 549 550 551 552 553 553 554 554 554 555 556 556
190 192 192 193 195 196 195 196 196 197 197 198 199 199 200 200 201 202 203 203 204 205 206 207 207 208 209 209 210 211 212 212 213 214 214 215 216 216 217 217 219 220 221 222 224 225 226 228 230 232 235 237 241 244 247 252 255 258 262 265 268 271 275 278 281 284 288 291 295 297 300 302 306 309 311 312 314 316 319 321 323 325 329 331 332 332 334 335 336 337 339 341 342 343 344 346 347 348 349 351 352 353 354 355 357 358 359 360 361 362 363 365 366 367 368 370 370 372 373 374 375 376 377 379 380 380 381 382 383 383 384 384 385 386 386 387 388 389 390 390 391 391 392 391 394 395 397 398 399 400 402 403 404 405 406 407 409 410 411 413 414 414 414 415 416 417 418 419 420 420 421 422 422 423 424 424 425 426 426 427 428 429 429 430 430 431 432 432 433 434 434 435 436 437 438 439 440 441 442 443 444 445 446 447 448 448 449 450 450 451 452 453 453 454 454 455 455 455 455 455 456 456 456 457 457 458 459 459 459 459 460 460 461 461 462 463 464 465 466 467 468 469 471 472 473 474 475 475 476 477 478 478 479 479 480 481 481 482 483 484 485 485 486 487 488 489 489 490 491 492 493 493 494 495 497 498 499 500 502 504 505 507 508 510 511 512 513 514 514 514 515 515 516 519 522 524 527 529 532 536 538 540 542 544 546 547 548 549 549 550 551 552 553 554 555 556 556 556 556 557 558 558
191 192 193 193 194 195 195 196 196 196 197 198 199 200 200 200 201 201 202 203 204 205 206 206 207 208 209 209 210 210 211 212 212 213 214 215 215 216 217 217 218 219 221 222 223 225 226 228 230 232 234 237 241 244 248 250 254 258 261 264 267 271 274 277 280 284 287 292 295 297 299 301 304 307 309 311 312 316 319 321 323 324 327 328 329 330 332 333 334 336 337 339 341 342 343 344 345 347 348 349 350 352 353 354 355 357 358 359 360 362 363 364 365 366 367 368 369 371 372 373 374 375 376 377 378 379 380 382 382 383 383 384 385 385 386 386 386 388 389 390 390 390 391 391 392 394 397 398 399 400 401 402 404 405 406 406 408 409 410 412 414 414 414 415 416 417 417 418 419 420 421 421 422 423 423 424 425 425 426 427 427 428 429 430 430 431 431 432 433 434 434 435 436 437 438 439 440 441 442 443 444 445 446 447 448 449 450 450 451 451 452 453 454 454 455 455 455 456 456 456 456 457 457 458 459 459 460 460 460 461 461 461 461 462 463 464 464 466 467 467 468 470 471 472 473 474 475 476 476 477 478 479 479 479 480 481 482 483 484 485 485 486 487 488 488 489 491 492 492 493 494 495 496 498 499 500 501 502 504 506 507 509 511 511 512 513 513 513 514 514 515 517 519 522 525 527 530 532 535 537 540 542 544 546 548 549 550 551 552 553 554 555 556 556 557 558 558 558 558 559 560 560
191 192 193 193 193 194 195 195 196 196 197 198 199 199 200 200 201 202 202 203 204 205 205 206 207 208 208 209 209 210 211 212 212 213 214 214 215 216 216 217 218 219 220 221 223 224 226 228 230 232 235 237 240 242 246 249 253 257 260 263 266 270 273 276 280 283 287 290 293 296 298 300 303 305 307 309 311 314 317 320 322 322 324 326 328 329 330 331 332 334 335 337 338 340 342 343 344 346 347 348 349 350 351 353 354 355 357 358 359 360 362 363 364 365 367 368 368 369 370 372 373 374 375 376 377 378 379 381 381 382 382 383 384 385 385 385 386 386 389 390 390 390 390 391 392 394 396 397 398 399 400 401 403 404 405 406 407 408 409 411 412 413 413 414 415 416 417 418 418 419 421 421 422 423 423 424 424 425 425 426 427 428 429 429 430 431 431 432 433 433 434 435 436 437 438 439 440 441 443 444 444 445 446 447 448 449 450 451 451 452 453 454 454 454 455 455 456 456 457 457 457 457 457 458 460 460 460 460 460 461 461 461 462 463 464 464 465 467 468 468 469 470 471 472 474 474 475 476 476 477 478 479 480 480 481 482 483 484 485 486 486 487 488 489 490 491 492 492 494 495 496 497 498 499 500 502 503 504 505 507 509 510 511 512 512 513 513 513 514 515 518 520 522 525 527 530 532 535 538 540 542 544 546 548 549 550 551 552 553 554 555 556 557 558 559 560 561 560 559 560 560 561
188 192 192 193 193 194 194 195 196 196 197 198 199 199 200 200 201 201 202 203 204 204 205 206 207 208 208 208 209 210 210 211 212 213 213 214 215 215 216 217 217 218 220 221 222 224 226 228 230 232 234 237 240 243 245 249 252 255 259 262 265 269 271 275 279 282 285 288 291 294 296 298 300 303 306 308 311 313 315 317 320 321 323 324 326 327 328 329 331 332 333 335 337 338 340 341 342 344 345 346 347 349 350 351 353 354 355 356 357 359 360 361 362 363 364 366 367 368 369 370 371 373 373 375 376 377 378 379 380 381 382 382 383 384 384 385 385 386 387 389 390 390 391 391 392 393 395 397 398 399 400 401 402 403 404 405 406 407 408 409 410 411 413 414 415 416 416 417 418 419 420 421 422 422 423 423 424 424 425 426 427 427 428 429 429 430 431 432 433 433 434 435 436 437 438 439 441 442 443 444 445 445 446 447 449 450 451 451 452 452 453 454 455 455 455 456 456 457 457 458 458 458 458 459 460 460 460 460 461 461 462 462 463 463 464 465 466 467 468 469 469 470 472 473 474 474 475 476 477 478 478 479 480 481 482 483 483 484 485 486 487 487 488 489 490 491 493 494 495 495 496 498 499 500 501 502 503 505 506 508 510 511 512 512 512 512 512 513 515 519 522 524 526 527 530 533 535 538 540 541 543 545 548 549 550 551 552 553 554 555 557 558 559 560 560 562 562 562 561 560 561 561
186 190 192 193 193 194 194 194 195 196 197 198 199 199 199 200 201 201 202 203 204 204 205 206 207 207 208 208 209 209 210 211 212 212 213 214 214 215 216 216 217 218 219 221 222 223 225 227 229 231 233 236 239 242 245 248 251 254 257 260 264 268 271 274 277 280 283 286 289 292 296 298 299 301 303 305 308 311 313 315 318 319 321 323 323 325 326 327 329 330 331 333 334 336 337 339 341 342 343 344 345 347 348 349 351 352 354 355 356 358 359 360 361 362 363 364 365 366 367 369 370 371 372 374 375 376 377 378 379 379 381 381 383 383 384 384 385 386 387 389 390 390 391 392 392 393 394 396 397 398 399 400 401 403 404 405 406 406 408 408 410 410 412 413 414 415 416 417 418 419 420 420 421 422 422 423 424 424 425 426 426 427 428 428 429 430 431 432 432 433 434 435 436 436 438 439 441 442 443 444 445 446 447 448 449 450 451 451 452 452 453 454 455 455 456 456 457 457 458 459 459 459 459 460 460 460 461 461 461 462 462 463 463 464 465 466 467 468 469 470 470 471 472 473 474 475 475 476 477 478 479 480 480 481 482 483 484 485 486 487 487 488 488 489 490 491 493 495 495 496 497 498 500 501 502 503 504 506 507 509 510 511 511 512 512 512 513 516 519 522 524 526 529 531 533 536 538 540 541 543 545 547 549 550 551 552 554 555 556 557 558 559 560 560 562 562 562 562 562 562 561 562
187 187 192 193 193 194 194 195 195 196 196 198 198 199 200 200 201 201 202 203 203 204 204 205 206 207 207 208 208 209 210 211 211 212 213 213 214 215 215 216 217 217 219 220 221 223 225 227 229 231 233 236 238 241 244 247 250 253 256 259 262 266 270 272 275 278 281 284 287 289 293 297 298 298 301 303 306 309 311 313 315 317 319 320 322 323 324 324 326 328 329 331 332 333 335 336 338 339 341 342 343 345 346 348 349 350 352 354 356 356 357 358 360 361 362 363 363 364 366 367 369 370 371 373 373 374 375 377 377 379 380 380 382 383 383 384 385 386 386 388 389 390 391 392 393 393 394 395 397 398 399 400 401 402 403 404 405 406 407 408 409 410 411 413 414 415 415 417 418 419 419 420 421 422 422 423 424 424 425 425 426 427 427 428 428 430 431 431 432 433 434 435 436 436 438 439 440 442 443 444 445 446 447 448 448 449 450 451 452 453 453 454 455 456 456 457 457 458 458 459 460 460 460 460 461 461 461 462 462 463 463 464 464 465 466 466 468 469 469 470 471 472 472 473 474 475 477 477 478 479 480 480 481 482 482 483 484 485 486 487 488 488 488 489 490 492 494 495 496 496 497 499 500 501 503 504 505 507 508 509 510 511 511 511 511 513 516 519 521 524 526 528 531 533 536 538 540 541 543 545 547 549 551 552 553 554 555 556 557 558 559 560 561 562 562 562 562 562 562 562 562 563
187 187 189 191 192 193 194 194 195 196 196 198 198 199 199 200 200 201 202 203 203 204 204 205 206 206 207 207 208 209 209 210 211 211 212 213 214 214 215 216 216 217 218 220 221 223 225 227 229 231 232 234 237 240 243 246 248 251 254 257 260 264 267 271 272 275 279 282 285 286 289 293 294 296 298 300 303 306 307 310 312 314 315 317 319 320 322 323 323 325 326 328 330 331 332 333 334 335 337 339 341 343 344 345 346 348 350 352 353 354 355 357 358 359 361 361 362 363 365 366 367 369 370 372 373 373 374 375 376 378 379 380 381 381 382 383 384 385 386 387 389 390 390 391 392 393 394 395 396 397 398 399 400 401 403 404 405 406 406 407 409 410 411 413 413 414 415 416 418 419 419 420 421 421 422 423 424 424 425 425 426 427 427 427 428 429 430 431 432 433 434 435 435 436 438 439 440 442 444 445 446 447 448 448 449 449 450 451 452 453 454 455 456 456 457 457 458 458 459 460 460 460 461 461 461 462 462 462 463 464 464 464 465 466 466 467 468 469 470 471 471 472 473 474 476 477 478 479 479 479 480 481 482 482 483 483 485 486 487 488 488 488 488 489 491 492 494 496 496 497 498 499 501 502 503 505 506 507 508 509 510 510 511 511 513 515 518 520 522 525 527 530 533 535 537 539 541 543 544 546 548 550 552 553 554 555 556 557 558 559 560 561 562 563 563 563 563 563 563 563 563 564
187 187 187 190 192 193 194 194 195 195 196 197 198 199 199 200 200 201 202 202 203 204 204 205 205 206 206 207 208 208 209 210 210 211 212 212 213 214 215 215 216 217 218 219 221 223 225 227 229 231 233 234 235 237 241 245 247 249 253 256 258 261 265 267 270 273 277 279 281 284 287 288 290 293 295 297 300 303 305 307 308 310 313 314 316 317 318 319 320 322 324 325 326 328 329 329 330 332 334 336 338 339 340 342 344 346 348 350 351 352 354 355 356 358 358 360 361 362 363 365 366 368 369 371 372 373 373 374 376 377 378 379 380 381 382 382 383 384 385 387 388 390 390 391 392 393 394 395 396 397 398 399 400 401 401 403 404 405 405 407 408 410 411 412 413 414 415 416 417 418 419 420 420 421 421 422 423 424 425 426 426 427 427 428 428 429 430 431 432 433 434 434 435 436 437 439 440 442 443 445 446 447 448 449 449 450 450 451 452 453 454 455 456 457 457 458 458 459 460 460 460 461 461 462 462 462 463 463 464 464 465 465 466 466 467 468 469 470 470 471 472 473 474 474 476 477 479 479 479 480 480 481 482 483 483 484 485 486 487 488 489 488 489 489 491 493 495 496 497 498 499 500 502 503 504 505 506 507 507 508 509 510 510 513 515 517 519 521 523 526 529 531 533 536 538 540 542 543 546 548 550 552 553 554 555 556 557 558 559 560 561 562 563 563 564 564 564 564 564 564 564 566
187 187 187 188 191 193 193 194 195 195 196 197 198 198 199 199 200 201 201 202 203 203 204 205 205 206 206 207 207 208 208 209 210 210 211 212 213 213 214 215 216 216 217 219 221 223 225 227 228 230 232 234 235 237 240 243 245 248 251 254 257 260 264 266 268 270 274 275 278 280 283 285 288 290 292 294 297 300 303 304 306 307 309 311 312 313 315 317 317 319 320 321 323 324 325 326 327 328 330 332 334 335 337 339 341 343 345 348 349 350 352 353 354 355 357 358 360 361 362 364 365 366 368 370 372 372 373 374 375 376 377 379 379 380 381 382 383 383 385 386 387 389 390 391 392 393 394 395 396 397 397 398 399 400 401 402 403 403 405 406 408 409 411 412 413 414 415 416 417 418 418 420 420 420 421 422 423 424 424 425 425 426 427 428 428 429 430 430 431 432 434 434 435 436 437 439 440 441 443 444 446 447 448 449 449 450 450 451 452 453 454 455 456 457 457 458 458 459 460 460 461 461 462 462 463 463 463 464 465 465 465 466 466 467 468 469 470 470 471 472 472 473 474 475 476 477 479 479 479 480 481 482 482 483 484 485 486 487 488 488 489 489 489 490 491 493 495 496 497 499 500 501 502 504 504 505 506 506 507 508 509 510 512 514 515 518 520 522 525 527 529 531 533 536 539 541 542 544 546 549 551 553 554 555 556 557 558 559 560 561 562 563 564 564 565 565 565 565 565 565 565 567
187 187 187 187 189 191 194 194 195 195 196 197 197 198 199 199 200 200 201 202 202 203 204 204 204 205 206 207 207 207 208 209 209 210 211 211 212 213 214 214 215 216 217 219 221 222 224 225 227 228 230 232 234 236 239 241 244 246 249 254 255 258 261 263 265 267 270 273 274 277 280 283 285 287 288 290 293 296 299 301 302 304 306 307 308 310 311 313 314 315 316 317 319 320 321 322 323 324 326 329 331 332 335 337 339 341 343 345 347 348 349 351 352 354 356 357 358 360 361 362 364 365 367 368 371 372 373 374 375 376 377 378 379 379 380 381 382 383 384 385 387 388 389 391 391 392 393 394 395 396 397 398 398 399 400 401 402 403 405 406 407 409 410 411 412 414 414 415 417 417 418 419 420 420 421 422 423 424 424 424 425 426 427 428 428 429 429 430 431 432 434 434 435 436 437 439 440 441 442 444 445 447 448 449 449 450 450 451 452 453 454 455 456 457 457 458 458 459 460 461 461 462 462 463 463 464 464 465 465 466 466 467 467 468 469 469 470 471 472 472 473 474 475 475 476 477 479 479 480 480 481 482 482 483 484 485 486 488 489 489 489 489 489 491 492 494 496 497 498 499 500 501 503 504 505 506 506 507 507 508 509 512 514 515 516 519 521 523 525 527 529 531 534 536 539 541 543 545 547 549 551 554 555 556 557 558 559 560 561 562 563 564 565 565 565 566 566 566 566 566 566 568
187 187 187 187 187 189 192 194 194 195 196 196 197 198 199 199 199 200 201 201 202 203 203 204 204 205 205 206 206 207 208 208 209 210 210 211 212 212 213 214 215 215 216 218 219 221 222 224 225 227 228 231 233 235 238 239 241 244 246 251 254 256 257 260 262 265 268 270 272 274 277 280 283 284 286 287 290 293 295 297 298 300 302 303 305 306 308 309 311 312 313 314 315 316 317 319 319 319 322 324 327 330 332 334 336 339 341 343 344 346 347 349 350 352 354 356 357 358 360 360 362 364 366 367 370 371 371 373 374 375 376 377 378 378 379 380 381 382 383 385 386 387 388 390 391 392 393 394 395 396 396 397 398 399 399 400 402 403 404 406 407 408 410 411 412 413 414 415 416 417 417 418 419 420 421 422 423 423 424 424 425 425 427 427 428 428 429 429 430 432 434 434 434 436 437 439 440 441 442 444 445 447 448 449 449 450 450 451 453 454 455 455 456 457 457 458 458 459 460 461 461 462 463 463 464 464 465 465 466 467 467 467 468 469 469 470 471 471 472 472 473 475 475 476 477 477 479 479 480 481 481 482 482 483 484 485 486 488 489 489 489 489 490 491 493 494 496 497 499 500 501 502 503 504 505 506 507 507 507 508 511 513 514 515 517 520 521 523 525 527 529 531 534 537 539 542 544 546 548 550 552 554 555 556 557 558 559 560 561 562 564 565 566 566 566 567 567 567 567 567 568 569
187 187 188 188 188 187 189 194 194 195 196 196 197 198 198 199 199 200 200 201 202 203 203 203 204 204 205 206 206 207 207 208 208 209 210 210 211 212 213 213 214 215 216 217 218 219 221 222 224 225 227 229 231 233 238 239 241 241 242 247 252 253 254 257 259 262 266 269 269 271 273 276 279 283 284 285 287 289 291 293 295 297 298 300 301 303 304 306 307 308 309 311 312 313 314 314 314 315 317 320 323 326 329 331 334 336 338 341 342 343 345 347 348 350 352 354 355 356 358 360 361 362 364 366 368 369 370 371 373 374 375 376 377 377 378 379 380 381 383 384 385 387 388 389 390 391 393 394 394 395 396 397 397 398 399 400 402 403 403 405 406 408 409 410 411 412 414 415 416 416 417 418 419 420 421 422 422 423 424 424 425 425 426 427 427 428 428 429 430 431 433 434 434 436 437 439 440 442 443 444 445 446 448 449 450 450 451 452 453 454 455 455 456 457 457 458 458 459 460 460 461 462 463 463 464 465 465 466 466 467 468 468 469 469 470 471 471 472 472 473 474 475 476 477 477 478 479 479 480 481 481 482 482 483 484 485 486 487 489 489 489 489 490 492 493 494 496 497 498 500 501 502 504 505 505 506 506 507 507 509 512 514 515 516 518 520 521 523 525 527 529 532 534 537 540 542 545 546 549 551 553 555 556 557 558 559 560 561 562 563 564 566 566 567 567 567 568 568 568 568 569 569
187 187 188 188 188 187 188 192 194 195 195 196 197 197 198 198 199 199 200 201 201 203 203 204 204 204 204 205 206 207 207 208 208 209 209 210 211 211 212 213 214 214 215 216 217 218 219 220 222 224 225 227 230 232 236 238 239 240 240 242 248 250 252 254 256 258 262 264 265 268 271 272 276 279 281 283 284 285 287 289 291 293 295 296 298 299 301 303 304 305 306 307 308 309 311 310 310 310 312 316 319 322 325 327 329 332 334 337 340 341 343 345 346 348 350 351 353 355 356 358 360 360 362 363 364 366 368 369 370 372 373 375 376 377 377 378 379 380 382 383 385 386 387 388 389 391 392 393 394 395 396 396 397 398 399 400 401 403 404 404 405 407 409 410 411 412 413 414 415 416 417 418 418 419 420 422 422 423 424 424 425 425 425 426 427 427 428 429 430 431 432 433 434 436 437 438 440 441 443 444 446 447 448 449 450 450 451 452 453 454 455 455 456 457 457 457 458 459 459 460 461 462 463 463 464 465 465 466 467 467 468 468 469 470 470 471 471 472 473 474 475 476 477 477 478 478 479 480 480 480 481 482 482 483 484 485 487 488 488 489 489 489 490 492 493 494 496 497 498 498 501 503 504 504 505 505 506 506 507 510 512 514 515 516 518 520 522 523 525 527 529 532 535 537 540 543 545 547 549 551 554 556 557 558 559 559 560 561 562 564 565 567 567 568 568 568 569 569 569 569 570 570
188 188 188 188 188 188 188 189 191 194 196 196 196 197 197 198 199 199 200 201 201 202 203 204 204 203 204 205 206 206 207 208 208 209 209 210 210 211 212 212 213 213 214 215 216 217 218 220 221 222 224 226 229 231 234 234 237 237 238 239 243 246 249 251 253 255 257 258 260 264 267 269 271 275 277 279 280 282 283 285 287 289 291 293 294 295 296 298 299 301 302 304 305 305 305 306 306 306 308 312 316 318 321 323 325 327 329 332 336 338 340 343 344 345 346 349 351 353 354 356 358 358 360 361 362 364 365 367 368 370 371 373 374 376 377 377 378 380 381 382 384 385 387 388 389 390 391 392 394 394 395 396 397 397 398 399 401 402 404 405 405 406 407 408 409 410 411 412 414 415 416 417 418 419 420 421 422 422 423 424 424 424 425 425 426 427 428 428 430 430 431 432 434 435 437 438 440 441 443 444 446 447 448 449 450 450 451 452 453 454 455 455 456 457 457 457 458 459 459 460 461 462 463 463 464 465 466 466 467 468 468 469 469 470 471 471 472 472 473 474 476 477 477 478 478 478 479 480 480 480 481 481 482 483 484 485 487 488 488 489 489 490 491 492 493 495 496 497 498 498 499 501 503 504 504 505 505 505 508 509 512 513 514 516 517 519 522 523 525 527 530 532 535 538 540 543 546 548 550 552 554 557 558 558 559 560 561 562 563 565 566 567 568 568 569 569 570 570 571 571 571 571
188 188 188 188 188 188 188 188 190 193 195 195 196 196 197 198 199 199 199 200 201 201 202 203 203 203 204 205 205 206 207 208 208 209 209 210 210 211 211 212 212 213 214 215 216 217 218 219 220 221 222 224 227 229 231 234 234 234 235 237 239 243 245 248 250 251 251 254 257 260 263 265 267 270 274 275 276 278 279 281 283 285 287 287 288 290 291 292 294 296 298 299 299 300 300 301 301 301 304 308 314 315 317 319 321 323 325 328 330 332 336 339 340 341 342 345 348 350 352 354 356 357 358 359 360 361 363 365 366 367 369 371 373 375 376 377 378 379 380 382 383 385 386 387 388 389 390 391 392 393 394 395 396 397 398 400 401 403 404 404 405 405 406 407 408 409 410 412 413 415 416 417 417 418 419 421 422 422 423 423 424 424 424 425 426 426 427 428 429 430 431 432 433 435 436 438 439 441 442 444 445 446 448 449 450 450 451 451 452 453 455 455 456 457 457 457 458 458 459 460 461 462 463 463 464 465 466 466 467 468 469 469 470 471 471 472 472 473 473 474 475 477 478 478 477 478 479 479 480 480 481 481 482 482 483 485 487 487 488 489 489 490 491 492 493 495 496 497 497 498 499 500 502 503 504 504 504 506 509 510 511 513 514 515 517 519 521 523 525 527 530 533 535 538 541 543 546 549 551 553 555 556 558 559 560 561 562 563 564 565 566 567 568 569 569 570 570 571 571 572 573 573
188 188 188 188 188 188 188 188 189 191 193 195 195 196 197 197 198 198 199 200 200 201 201 202 202 203 204 204 205 206 207 207 208 209 209 210 210 211 211 211 212 213 214 214 215 216 217 219 220 221 222 222 224 227 228 231 232 232 233 235 237 239 242 244 247 249 250 251 253 256 259 262 264 266 270 271 273 274 275 277 279 281 282 282 283 284 285 287 288 290 292 293 293 293 294 295 296 297 298 304 306 310 313 315 317 319 321 322 325 328 331 334 337 337 338 341 344 346 348 350 353 355 356 357 358 359 361 363 365 366 368 370 372 373 375 376 377 378 380 381 382 384 385 387 388 389 390 391 392 394 394 396 397 397 398 399 402 404 404 404 405 405 406 406 407 409 410 411 413 414 416 417 417 418 419 421 422 423 423 423 423 423 423 424 425 426 427 428 428 430 431 432 433 434 436 438 439 441 442 443 444 446 447 448 449 450 451 451 452 453 454 455 456 457 457 457 458 459 459 460 461 462 463 463 464 465 466 467 468 469 469 470 470 471 471 472 473 473 474 474 475 475 476 477 477 478 479 479 480 480 480 481 482 482 483 484 486 486 487 488 489 490 491 492 493 495 496 496 497 498 499 500 501 503 503 504 504 506 508 509 511 512 514 515 516 519 521 523 525 528 530 533 536 538 541 544 546 549 551 553 555 556 557 559 560 561 562 563 564 565 566 567 569 569 570 570 571 571 572 573 574 574
188 188 188 188 188 188 188 188 188 189 192 194 195 196 196 197 197 198 199 199 200 200 201 201 202 203 203 204 205 206 206 207 208 209 209 210 210 210 210 211 211 212 213 215 216 216 217 218 220 221 221 222 222 225 226 228 228 229 231 233 234 236 239 242 245 247 247 249 250 252 256 258 260 263 265 267 269 270 272 274 276 277 277 278 278 279 280 281 283 285 287 287 287 288 288 289 291 292 294 298 303 306 308 310 312 315 317 319 321 323 326 329 332 333 334 337 341 343 345 347 350 353 354 355 356 357 359 361 363 365 366 368 370 372 374 375 376 378 379 380 382 383 384 386 387 388 389 390 392 393 394 397 397 397 398 399 400 402 403 404 404 405 406 406 407 408 410 411 412 414 415 417 417 418 419 420 422 423 423 423 423 423 423 424 425 425 426 427 429 429 431 432 433 434 435 437 439 440 441 442 443 445 446 447 448 449 450 451 451 452 454 455 456 457 457 457 458 458 459 460 461 462 463 463 464 465 466 467 468 469 469 470 471 471 472 472 473 473 474 474 475 476 476 476 477 478 478 479 479 480 481 481 481 482 483 484 485 486 487 488 489 490 490 492 493 494 495 496 497 497 499 500 501 502 502 503 503 506 508 509 510 512 513 515 516 518 520 523 525 528 530 533 536 538 541 543 546 549 551 553 554 556 557 558 559 561 562 563 564 565 566 567 569 570 570 571 572 572 573 574 574 575
188 188 189 188 188 188 188 188 188 188 191 194 195 195 196 197 197 197 198 199 199 200 201 201 200 201 202 204 205 205 206 207 208 208 209 210 210 210 211 211 212 212 214 215 216 216 217 218 219 221 221 221 222 223 223 222 222 225 228 230 231 232 234 237 241 247 243 244 246 248 252 255 257 259 261 264 265 266 268 270 271 272 272 272 273 273 275 276 278 279 281 281 282 282 283 286 287 288 290 294 299 301 303 306 308 310 312 315 318 320 322 324 327 330 330 333 336 340 342 344 347 350 353 354 354 355 357 360 362 363 364 367 368 371 372 374 375 377 378 380 381 383 384 385 387 388 389 390 391 392 394 397 398 398 397 398 399 400 402 403 404 405 405 406 407 408 409 411 412 413 414 417 417 418 419 420 420 422 422 423 423 423 424 424 424 425 426 427 428 429 431 432 433 434 435 437 438 439 440 441 443 444 445 446 447 448 449 450 451 452 453 454 455 457 456 456 457 458 459 460 461 462 463 463 464 465 466 467 468 469 470 470 471 472 472 473 473 474 474 475 475 476 476 477 477 478 478 479 479 480 480 481 481 482 483 484 485 486 487 488 489 489 490 491 492 494 495 495 496 497 499 499 500 501 502 502 503 505 507 509 510 511 513 515 516 518 520 522 525 528 531 533 535 538 541 543 546 548 551 553 554 556 557 558 559 561 562 563 564 565 566 568 569 571 571 572 573 573 574 575 575 576
188 188 188 188 188 188 188 189 188 188 189 193 195 195 195 196 196 197 198 198 199 200 200 199 199 198 199 200 201 202 204 205 207 208 208 209 209 210 211 212 212 212 213 214 216 216 217 218 220 220 221 221 221 222 219 216 216 219 223 226 224 223 228 232 235 238 237 239 241 244 247 250 253 255 257 260 262 263 264 265 266 267 267 267 268 268 269 271 272 274 275 276 276 276 279 282 284 286 287 291 294 296 299 301 303 305 308 311 313 316 318 320 323 325 326 329 332 336 339 341 344 347 349 350 351 354 356 357 359 362 363 365 367 370 371 373 375 376 378 379 381 382 384 385 386 388 389 390 391 392 396 397 398 398 398 399 400 402 404 404 404 404 405 406 407 408 409 411 412 414 416 417 417 417 419 419 420 421 422 423 423 423 424 424 424 425 426 426 428 430 431 432 433 434 434 435 436 438 439 440 443 444 445 445 446 447 448 449 450 451 452 453 454 455 456 456 457 458 459 460 461 462 463 463 464 465 466 467 468 469 470 471 471 472 472 473 474 474 474 475 476 476 477 477 477 478 479 479 480 480 480 481 481 482 483 484 485 486 486 487 488 489 490 491 492 493 494 495 496 497 498 499 500 501 501 502 503 505 507 508 510 511 513 515 516 518 520 522 525 528 531 534 536 539 541 543 545 548 550 552 554 555 557 558 559 561 562 563 564 565 567 568 570 571 572 573 574 574 575 576 576 577
187 188 189 189 188 188 188 189 189 189 189 192 193 194 195 195 195 195 196 196 197 198 198 197 197 196 195 196 197 199 200 202 205 207 207 208 210 210 211 212 211 211 211 212 216 217 218 218 219 220 221 221 221 219 214 211 213 217 216 216 215 216 221 225 229 233 232 235 237 240 243 245 247 249 252 257 260 261 261 260 261 262 262 262 263 263 264 265 267 269 270 270 270 271 276 278 281 282 284 287 289 292 294 296 298 301 305 307 309 311 314 316 318 321 324 327 330 333 335 338 340 343 345 348 349 352 354 356 357 360 362 364 366 369 370 373 374 376 377 379 380 382 383 384 386 387 388 389 390 391 396 397 398 398 398 400 401 402 404 404 404 404 405 406 407 408 409 410 412 413 415 417 417 417 418 419 420 420 421 423 423 424 424 424 424 425 426 426 427 428 430 431 433 433 433 434 435 437 438 440 442 443 444 445 446 447 447 448 449 450 451 452 454 455 456 456 457 458 459 459 460 462 463 463 464 465 466 467 468 469 470 470 471 472 473 473 474 474 475 476 476 476 476 477 477 478 479 479 480 480 481 481 482 483 483 484 485 485 486 487 488 489 490 491 492 493 494 495 496 497 498 499 500 501 501 502 502 503 505 507 509 511 513 515 515 517 520 522 524 527 530 533 536 539 541 543 545 548 550 552 554 555 556 558 559 561 562 563 564 565 567 569 570 572 573 574 574 575 576 577 577 578
187 188 188 189 189 188 189 189 189 189 189 189 191 193 195 194 193 192 192 193 194 195 196 196 195 194 194 193 194 195 197 199 201 203 205 206 207 209 211 212 211 210 209 209 213 217 217 219 219 220 221 221 221 215 211 211 212 214 216 214 215 214 216 219 223 227 228 230 233 236 238 243 242 243 244 243 247 256 257 257 257 257 257 257 257 257 259 261 263 264 265 264 264 267 272 275 277 278 281 283 285 287 289 291 294 298 302 303 305 307 310 312 314 317 323 326 328 331 332 334 336 337 340 342 347 350 352 357 358 359 361 363 365 367 370 372 374 376 377 379 380 381 383 384 385 388 388 389 390 391 394 397 398 398 399 400 401 402 403 404 404 404 405 405 406 408 409 410 412 413 415 417 417 417 418 419 419 420 422 423 423 423 424 424 424 424 425 425 427 427 429 430 432 432 433 434 436 438 439 440 441 442 443 444 445 446 447 448 449 450 451 452 453 454 455 456 456 457 458 459 460 461 463 463 464 465 466 467 468 469 470 470 471 472 473 473 474 474 475 475 476 476 476 477 477 477 478 479 480 480 481 481 482 483 483 484 485 486 487 488 489 489 490 491 492 493 494 495 496 497 498 498 499 500 501 501 501 502 504 506 508 510 512 514 514 515 519 522 524 527 530 533 536 538 540 542 545 547 550 552 554 555 556 558 559 561 562 563 565 566 568 569 571 572 573 574 575 576 577 577 578 579
187 187 188 189 189 189 189 189 189 189 189 189 190 193 193 191 190 189 189 189 191 193 194 194 193 193 193 193 192 193 194 196 197 198 200 202 204 207 209 211 210 209 209 208 210 212 216 220 220 220 221 220 218 212 211 211 213 214 216 216 217 215 215 217 221 224 224 226 229 232 238 242 240 237 238 240 243 247 248 249 252 251 251 251 251 253 256 257 258 260 259 259 260 264 269 272 272 273 273 274 279 282 284 287 290 295 298 299 301 303 305 308 310 317 320 323 325 328 330 332 334 337 338 340 342 344 347 356 357 358 361 363 364 366 368 371 373 375 377 378 380 381 382 384 388 390 389 388 389 391 392 392 397 397 399 400 401 402 403 403 403 403 404 405 406 408 409 410 412 413 415 416 417 417 417 418 419 420 422 422 422 423 423 423 424 423 424 425 426 427 428 429 431 432 432 434 435 437 439 440 441 442 443 443 444 445 446 447 448 449 450 452 453 454 454 455 456 457 458 459 460 461 462 463 464 465 466 467 468 469 470 470 471 472 472 473 474 474 474 474 475 475 476 476 476 477 477 478 478 479 481 481 481 482 483 484 485 485 486 487 488 489 490 491 492 493 494 495 496 497 497 498 499 499 500 500 501 502 504 506 507 509 511 513 514 516 518 521 524 527 530 532 534 537 539 541 544 546 548 551 553 555 556 558 559 561 562 564 565 566 568 570 571 572 574 575 576 577 578 578 579 580
186 187 188 188 189 189 189 189 189 189 189 189 189 190 191 190 188 188 189 190 189 190 192 192 192 193 196 195 193 193 194 194 195 196 198 200 202 204 206 209 209 208 207 206 206 207 211 219 219 219 219 216 212 211 212 212 213 214 215 217 218 220 221 221 221 221 221 221 226 232 237 240 237 235 232 234 238 237 240 243 247 246 245 245 246 251 252 253 254 255 255 257 258 263 269 270 271 272 271 269 270 276 280 282 288 292 293 293 296 298 301 304 303 310 313 319 320 322 325 329 334 336 339 341 342 344 347 350 355 357 359 361 364 366 368 370 372 374 376 378 380 381 382 386 391 391 390 388 389 390 391 392 393 397 399 400 401 402 403 401 401 402 404 405 406 407 409 410 411 412 413 415 416 417 417 418 419 420 421 421 422 423 423 423 423 423 423 424 425 426 427 428 430 431 432 434 436 437 438 439 440 441 442 443 444 445 446 447 448 449 450 451 452 453 454 454 455 456 458 459 460 461 461 463 464 464 465 466 468 468 469 470 471 471 472 473 473 473 474 474 474 474 474 474 476 475 476 476 476 477 478 478 479 480 481 483 484 485 485 486 487 488 489 490 491 492 493 494 495 496 497 498 498 499 499 500 500 501 503 505 507 509 511 513 514 516 518 520 523 526 529 531 533 536 538 540 543 545 547 550 552 554 556 558 559 561 563 564 565 567 568 570 571 573 574 576 577 578 579 579 580 581
186 187 187 188 188 189 189 189 189 189 189 189 189 189 190 189 188 188 191 192 192 191 190 191 194 196 198 196 194 193 194 194 195 195 198 199 200 202 204 206 206 206 206 205 203 203 206 209 213 214 213 209 210 211 211 211 213 215 218 221 222 224 226 227 222 223 225 222 226 232 236 238 235 232 232 233 234 235 236 238 242 241 240 243 245 247 248 249 252 254 254 255 257 264 269 269 270 271 271 270 271 273 276 280 283 287 289 287 293 297 298 296 296 307 308 311 314 318 319 322 326 329 336 336 337 341 345 348 351 354 356 359 364 367 370 369 371 374 376 377 379 380 382 385 387 390 390 389 389 389 391 392 392 397 398 399 399 400 400 399 400 401 402 404 405 407 408 409 410 411 412 414 415 416 417 418 419 420 421 421 421 422 423 423 423 423 424 424 425 426 427 428 429 430 432 433 434 436 437 438 439 440 441 442 443 444 445 446 447 449 450 451 452 452 453 454 455 456 457 458 459 460 461 462 463 464 465 466 467 468 469 470 470 471 471 472 472 473 473 473 474 474 474 474 474 474 474 474 475 477 477 477 478 479 480 482 483 483 484 485 486 487 488 489 490 491 492 493 494 495 496 497 498 498 499 499 499 500 502 504 506 508 510 512 514 516 518 521 523 525 528 530 533 535 537 540 542 544 546 549 551 553 555 557 559 561 563 564 566 567 569 570 572 573 575 577 578 579 579 580 581 581
186 187 187 188 188 188 189 189 189 189 189 189 189 189 189 188 188 188 192 195 195 194 195 195 196 198 200 198 196 197 197 198 198 197 197 198 199 201 202 203 203 203 204 203 202 203 204 206 207 207 207 208 209 211 211 212 214 217 221 224 226 228 231 233 233 229 228 227 226 231 235 235 234 234 234 234 234 235 236 237 237 239 242 243 244 247 252 254 256 257 257 255 256 266 268 269 269 270 271 271 274 278 278 278 279 285 290 293 294 297 299 301 302 304 305 308 309 313 315 317 320 323 328 331 335 339 343 347 352 354 356 357 362 366 369 370 371 373 374 376 378 380 381 383 386 388 389 388 388 389 390 391 392 394 397 398 398 399 399 399 400 401 402 403 404 406 407 408 408 409 411 412 414 416 417 418 418 419 420 420 420 421 422 423 423 423 423 424 424 426 426 427 428 430 432 432 433 434 436 438 439 440 441 442 442 443 444 446 448 449 449 451 451 452 453 454 455 456 457 458 458 459 460 462 463 464 465 466 467 468 468 469 469 470 471 471 472 472 472 473 473 473 473 473 473 473 474 474 475 476 476 477 477 478 479 480 481 482 483 484 485 486 488 488 489 490 491 492 493 494 495 496 497 498 498 498 498 499 501 503 505 507 510 512 515 517 518 520 522 525 527 529 532 534 536 539 541 543 545 548 550 552 554 556 558 560 562 565 566 568 569 571 572 574 576 577 579 579 580 580 581 582
186 186 187 187 188 188 188 189 189 189 189 189 189 189 189 188 188 186 192 196 197 198 199 199 200 201 201 200 200 201 201 200 199 198 198 198 198 200 199 199 200 201 202 203 202 204 205 206 207 208 209 210 211 213 213 215 216 220 224 227 229 232 235 236 237 236 234 234 237 237 237 237 237 237 237 237 237 238 239 240 241 244 248 249 253 255 256 257 259 260 261 261 264 268 269 270 271 271 274 276 278 284 282 281 283 287 291 295 298 302 304 306 308 309 310 308 310 312 313 314 315 319 324 329 333 337 341 345 351 355 357 358 361 366 370 370 373 373 374 376 377 379 381 383 386 388 388 388 388 388 389 391 392 393 397 397 396 398 398 398 400 401 402 403 404 405 406 407 408 409 410 411 413 415 416 418 418 419 419 420 420 420 421 422 422 423 423 424 424 425 426 426 427 429 431 431 432 433 435 437 438 439 440 441 442 443 444 445 446 448 449 450 451 453 453 454 455 456 456 457 458 459 460 461 462 463 464 465 466 467 467 468 469 469 470 470 471 471 472 472 472 472 473 472 473 473 473 474 474 475 475 476 476 477 478 479 480 481 482 483 484 486 487 488 488 489 490 491 492 493 494 495 496 497 497 498 498 499 500 502 505 507 509 511 513 515 517 519 521 524 526 528 531 533 535 538 540 542 544 547 549 551 553 555 557 559 562 564 567 568 570 571 573 575 576 578 579 580 580 581 582 582
186 187 187 187 187 188 188 189 189 189 189 189 189 189 189 189 187 186 190 195 197 198 199 200 200 201 202 203 204 205 203 202 201 200 201 201 202 201 202 199 198 199 201 202 204 206 208 210 211 211 211 212 213 215 216 218 221 223 227 229 231 234 237 238 239 240 239 239 241 241 241 242 242 242 242 242 242 242 243 244 245 249 251 254 258 257 259 260 261 262 266 265 268 270 271 273 274 276 282 283 286 289 286 286 289 292 295 297 301 305 308 310 311 313 315 316 318 318 318 319 319 317 322 327 332 336 340 344 350 356 358 360 362 367 370 367 370 373 375 378 380 381 383 384 387 388 388 388 388 388 389 390 392 393 394 394 395 396 397 398 399 400 401 402 403 404 405 406 408 409 410 411 413 414 416 417 417 418 419 419 420 420 421 421 422 422 423 423 423 424 425 425 426 429 430 430 431 432 434 435 437 438 439 440 441 442 443 444 445 447 448 449 451 452 453 454 454 455 456 457 457 458 459 461 462 463 464 465 465 466 467 467 468 468 469 470 470 471 471 471 471 472 472 472 472 472 472 473 473 474 474 475 475 476 477 478 478 480 481 482 483 485 486 487 487 488 489 490 491 492 493 494 495 496 497 497 497 498 500 502 504 506 508 511 512 514 516 519 520 523 525 528 530 532 535 537 539 542 543 545 548 550 552 554 556 558 561 564 566 568 570 572 574 575 577 579 580 580 580 581 582 583
186 187 187 187 187 187 188 188 189 189 189 189 189 189 189 189 188 187 190 195 197 198 199 200 200 201 202 203 203 204 205 204 203 203 203 203 203 203 204 204 203 201 202 204 207 209 211 213 215 215 215 215 215 217 219 222 226 229 232 234 235 238 240 241 243 244 243 244 245 246 246 247 247 247 247 248 247 247 247 248 250 253 254 258 259 261 261 262 262 262 265 270 272 274 275 276 279 284 290 290 293 291 291 293 295 298 299 301 305 309 311 313 315 317 318 321 322 322 322 323 323 321 320 324 329 334 339 343 349 354 357 360 364 366 367 364 366 371 375 380 381 382 382 384 386 386 387 389 388 388 389 390 391 393 393 393 394 395 397 398 400 401 401 402 403 404 405 406 407 409 410 411 412 414 415 415 416 417 418 419 420 420 421 421 421 422 422 423 423 424 425 425 426 427 429 430 430 431 432 434 436 438 439 439 440 441 442 444 445 446 447 449 450 451 453 454 454 455 456 457 457 458 459 460 461 462 463 464 465 465 466 466 467 468 468 469 469 470 470 470 470 471 471 471 471 471 471 472 472 473 473 474 474 475 476 476 477 479 480 481 483 484 485 487 487 487 488 489 490 491 491 492 494 496 497 497 497 497 499 502 504 506 508 510 511 513 515 518 520 522 524 527 529 531 534 536 538 540 543 544 546 549 551 553 555 557 560 563 566 568 570 572 574 576 578 579 580 581 581 581 582 583
186 186 187 187 187 187 188 188 189 190 189 189 189 189 189 189 189 188 192 195 197 198 199 200 200 201 202 202 203 204 205 206 205 206 205 204 204 204 205 207 206 205 204 207 210 212 214 217 219 220 219 219 219 220 224 227 232 234 235 237 240 242 245 248 249 249 251 249 250 250 251 251 252 252 253 253 253 252 252 252 255 256 257 259 261 262 264 263 264 265 268 273 275 278 281 282 284 289 292 295 294 294 296 297 299 300 303 306 309 313 315 317 318 320 322 325 326 326 327 327 326 325 323 322 326 332 336 341 345 351 355 359 361 364 364 365 366 369 372 377 378 380 381 384 385 386 387 390 389 389 389 389 390 392 392 393 394 395 396 398 400 402 402 402 402 404 405 406 407 408 409 411 412 413 414 415 416 417 417 418 419 420 421 421 421 422 422 422 423 423 424 425 425 426 427 429 430 431 431 433 435 437 438 439 440 441 442 443 444 446 447 448 450 450 452 453 454 455 456 457 457 457 458 459 460 462 462 463 464 464 465 466 466 467 468 468 469 469 469 469 469 470 470 470 470 470 471 471 471 471 472 473 473 474 475 475 477 478 479 481 482 483 484 486 487 487 487 488 489 490 491 491 493 495 496 497 497 497 499 501 504 506 508 509 511 513 515 517 519 521 524 526 528 531 533 535 537 539 542 544 545 548 550 552 554 557 559 562 565 568 570 572 574 576 578 579 580 581 581 581 582 583
184 185 185 186 187 187 187 188 188 189 189 189 189 189 189 189 189 189 191 195 196 197 199 200 200 200 201 202 203 204 205 206 207 206 206 206 205 206 207 208 208 207 207 210 213 215 217 220 222 224 224 224 224 227 229 232 236 238 238 240 243 245 248 250 253 252 253 254 255 255 256 257 257 257 258 258 258 258 258 258 259 261 260 262 263 265 266 267 267 269 273 277 280 281 285 287 290 293 296 298 300 301 302 303 304 306 308 310 312 316 318 320 322 324 327 329 330 330 331 331 330 329 327 326 324 328 334 338 341 347 352 357 362 362 363 365 367 367 369 372 375 377 379 382 383 386 389 390 389 388 389 388 390 391 392 393 393 395 396 398 399 401 401 402 402 403 404 406 407 408 410 411 412 413 414 415 416 416 417 418 418 419 420 421 421 421 421 422 423 423 424 425 425 426 427 428 429 431 431 432 434 436 437 438 439 440 441 443 444 445 447 448 449 450 451 452 453 455 456 456 457 457 457 459 460 461 462 462 463 463 464 465 465 466 467 468 468 468 469 469 469 469 469 469 469 470 470 470 470 470 471 472 472 473 474 475 476 477 478 480 481 482 484 485 486 486 486 487 488 490 491 492 493 495 496 496 497 497 498 501 503 505 507 509 510 512 514 517 518 520 523 525 527 529 531 534 536 538 541 543 545 547 549 551 553 556 559 562 564 567 570 572 574 576 577 579 580 581 582 582 582 583
183 183 184 184 185 187 187 188 188 189 189 189 189 189 189 190 190 190 190 192 195 197 198 200 200 200 201 202 203 204 205 206 207 207 207 207 206 207 208 209 210 209 211 213 216 218 220 223 225 228 228 228 231 233 236 238 240 241 241 243 246 249 252 255 255 255 257 259 260 260 260 262 262 262 263 263 263 264 264 264 265 265 264 264 266 267 268 269 271 274 278 281 285 286 290 292 294 297 300 303 304 305 306 307 308 311 313 315 317 320 322 324 326 329 331 334 334 335 335 335 334 332 331 329 328 326 330 334 338 344 349 354 358 360 362 365 366 366 368 370 372 374 377 379 382 383 388 389 389 388 387 388 389 390 391 392 393 395 396 397 399 399 400 401 402 403 404 405 407 408 409 411 412 412 413 414 415 416 417 417 418 419 420 421 421 421 421 421 422 423 423 424 425 426 427 427 428 431 431 432 434 435 436 437 439 440 441 442 443 445 446 448 449 451 450 451 452 455 456 456 456 457 457 458 459 460 461 461 462 463 463 464 464 465 466 467 467 468 468 468 469 469 469 469 469 469 469 469 469 469 470 471 472 473 473 474 475 476 478 479 480 482 483 484 485 486 486 486 489 491 493 493 493 494 495 496 496 496 497 500 503 505 507 508 509 511 514 516 517 519 522 524 526 528 530 532 535 537 540 543 544 546 548 550 552 555 558 561 564 567 569 572 574 576 577 579 580 581 583 585 585 584
182 182 182 183 183 185 187 187 188 188 189 189 189 189 189 190 190 190 190 190 193 195 197 199 199 200 201 202 203 204 205 206 207 208 208 208 208 208 209 210 212 213 215 216 218 221 223 226 228 231 233 233 236 239 242 244 246 246 245 246 250 253 256 259 260 260 261 263 264 264 264 265 267 268 268 269 269 269 269 269 269 269 268 268 269 270 271 272 274 278 282 286 290 292 294 297 299 301 304 307 308 309 310 311 314 316 318 320 321 323 326 328 331 333 336 338 338 339 339 339 338 336 335 333 331 330 328 331 335 340 345 350 355 357 359 362 365 365 367 368 370 373 375 377 380 382 385 387 387 388 387 387 388 390 391 392 393 394 396 397 399 400 400 400 401 402 403 405 406 407 409 411 412 412 413 414 415 416 416 417 417 419 419 420 421 420 421 421 421 421 422 424 425 425 426 427 428 430 431 431 432 434 435 437 438 439 440 441 442 443 444 447 448 450 450 450 452 455 455 456 456 456 456 457 458 459 460 461 462 462 463 463 464 464 465 466 467 467 467 468 468 468 469 469 469 468 468 468 468 468 469 470 471 472 473 473 474 476 477 478 479 481 482 483 485 486 486 486 489 491 493 492 493 493 494 495 495 495 497 499 502 505 506 508 509 510 513 516 517 519 521 523 525 527 529 531 533 536 539 542 544 545 547 549 552 555 558 561 564 566 569 572 574 575 577 578 580 581 583 585 587 585
181 181 181 181 182 182 184 186 187 188 189 186 189 189 189 189 190 190 190 190 191 194 197 198 199 199 200 201 203 204 205 205 207 207 207 208 209 210 211 213 215 217 218 218 221 224 226 228 231 235 237 238 240 243 247 250 252 253 254 253 254 257 260 262 263 265 266 267 267 268 268 267 270 273 274 274 274 274 272 272 273 273 272 272 273 274 274 275 277 282 286 291 295 297 299 301 303 306 308 311 313 313 314 316 319 321 323 326 328 328 330 333 335 338 340 342 343 343 343 343 341 340 338 337 335 334 333 332 331 337 342 347 352 354 356 360 363 364 366 367 370 374 374 375 381 384 385 384 387 388 387 386 387 389 390 391 393 394 395 397 398 400 400 400 400 401 403 404 406 407 408 411 412 412 413 414 415 416 416 416 417 418 419 419 420 420 420 421 421 421 422 423 425 426 426 427 428 430 430 431 432 433 434 435 437 438 439 441 441 442 444 446 448 450 450 450 451 453 453 454 455 455 456 456 457 459 460 461 462 462 462 463 463 463 464 465 466 466 467 467 468 468 468 468 468 468 467 467 467 468 468 469 471 472 472 472 473 475 476 477 479 480 481 483 484 485 486 484 488 490 490 491 492 492 493 494 495 495 496 499 501 504 506 508 510 510 512 515 516 518 520 522 524 526 528 530 533 535 538 541 543 545 547 549 552 555 558 561 564 566 568 571 573 575 577 578 580 581 583 585 586 587
181 180 180 180 180 181 180 180 186 187 187 184 187 189 190 190 190 190 190 190 190 192 196 198 198 199 200 201 202 203 204 205 205 206 207 208 209 211 213 216 218 220 221 222 225 228 230 233 237 240 242 243 244 246 251 254 257 259 259 261 261 263 264 266 265 268 270 271 271 270 271 272 274 276 277 277 275 276 276 276 276 276 277 279 281 282 283 284 283 286 291 295 300 302 304 306 308 310 313 315 318 318 320 325 329 333 338 334 333 334 334 337 339 342 344 347 347 347 348 347 345 343 342 340 339 339 338 338 336 337 339 343 349 351 354 357 360 363 364 367 371 375 375 375 379 382 384 387 387 387 386 386 387 388 390 391 392 393 394 396 397 398 399 400 400 401 402 404 405 406 407 410 411 412 413 414 415 415 416 416 417 418 418 419 420 420 419 420 421 421 422 422 424 426 426 427 428 428 430 431 431 433 434 435 436 437 439 440 441 442 444 446 447 450 449 449 450 452 452 453 454 454 455 456 457 459 460 461 462 461 461 462 462 463 464 464 464 465 466 467 467 468 468 468 468 467 467 466 467 467 468 469 471 471 471 472 472 474 475 477 478 479 480 482 484 485 485 485 486 488 489 490 491 492 493 493 494 495 495 497 500 503 505 506 508 509 511 513 515 516 519 521 523 525 527 530 532 535 538 540 543 545 548 550 552 555 558 561 563 566 568 571 573 574 576 578 579 581 583 585 586 588
180 180 179 179 179 179 177 180 182 186 185 187 188 189 190 190 190 190 190 190 190 190 194 197 198 199 200 201 202 202 203 204 204 205 206 208 209 213 217 218 220 221 223 225 229 232 234 237 240 244 246 248 249 251 253 258 262 263 264 266 267 267 268 269 272 273 275 276 276 277 277 277 277 278 279 279 279 279 280 280 281 282 282 284 289 292 293 293 291 291 296 300 303 306 308 311 313 315 317 319 322 323 327 331 338 343 341 337 339 339 340 341 344 346 349 351 351 351 352 350 349 347 346 345 344 344 343 343 341 341 343 345 346 348 351 355 358 361 363 367 371 373 375 375 378 383 385 387 387 388 387 388 387 388 390 390 392 393 394 395 396 397 398 400 400 401 402 404 405 406 407 408 411 412 412 414 414 415 415 416 417 417 418 419 419 419 419 419 420 420 421 422 423 425 427 428 428 428 429 430 431 433 435 435 435 437 438 439 441 443 444 446 446 448 448 449 449 451 451 452 453 453 454 455 457 459 460 461 461 461 461 461 461 462 463 463 463 463 464 465 467 467 467 468 467 467 466 467 466 466 467 469 470 470 471 471 471 473 474 476 477 479 481 483 484 484 484 484 484 486 488 489 490 491 492 492 494 495 495 497 500 501 503 505 507 508 510 512 514 515 518 520 522 524 527 529 532 534 537 540 543 546 548 550 552 555 557 560 563 565 568 570 572 574 576 577 579 581 582 584 586 587
180 179 179 178 178 176 176 175 181 182 186 188 189 189 190 190 190 190 190 190 191 190 192 197 197 199 200 200 201 202 202 202 203 205 206 207 209 212 217 221 221 222 224 227 230 234 237 240 244 247 250 252 254 256 257 261 263 266 268 270 271 271 272 273 276 278 279 281 282 283 283 283 283 283 283 283 283 284 285 286 286 287 289 290 291 298 303 302 300 298 300 303 307 311 313 315 317 320 322 324 326 330 332 339 341 343 343 343 344 344 345 346 347 350 353 355 355 356 356 354 352 351 351 350 349 349 348 347 346 344 343 345 346 347 350 353 356 359 363 366 370 373 374 376 375 378 381 383 385 387 389 389 388 388 389 390 391 392 394 394 396 397 398 400 400 401 402 403 404 405 407 408 409 410 412 413 413 414 415 415 416 417 418 418 419 419 419 419 419 420 420 421 423 424 427 427 429 429 430 430 432 433 434 435 435 436 438 439 441 443 445 446 447 447 448 448 449 449 450 451 452 453 453 454 455 457 459 460 460 460 460 460 461 462 462 462 462 462 463 464 465 466 467 467 467 467 467 467 467 467 467 469 469 470 470 470 470 473 476 477 478 480 481 482 483 483 483 484 484 484 486 487 489 490 491 493 494 494 494 496 499 501 503 505 506 507 509 511 513 514 517 519 522 524 526 529 531 534 536 539 542 546 548 550 552 554 557 560 563 565 567 570 572 574 575 577 578 580 582 584 585 585
179 178 177 176 175 173 174 174 174 178 187 188 189 189 190 190 190 190 190 190 190 191 190 193 196 197 198 200 201 201 201 202 203 205 206 208 210 213 216 219 221 222 226 228 232 237 240 243 246 250 254 256 258 260 263 264 267 270 271 273 274 275 276 277 280 282 283 284 285 287 288 288 288 289 290 288 289 290 291 291 292 293 295 296 297 298 309 310 308 307 305 307 311 315 318 320 322 324 326 328 331 337 340 343 346 345 345 346 348 350 350 351 352 354 357 359 359 360 359 358 357 356 355 355 354 354 353 352 350 348 346 345 346 347 348 352 355 358 362 366 369 372 373 375 376 376 378 381 385 387 389 388 388 388 389 389 391 392 393 394 395 396 398 400 400 401 401 403 404 405 406 407 408 409 411 412 413 413 413 415 416 416 417 417 418 418 418 418 418 419 419 420 422 423 424 426 427 428 430 431 431 432 433 434 435 436 437 438 440 442 443 445 446 447 448 447 448 449 449 450 451 452 452 454 454 455 457 459 459 459 459 460 461 462 461 461 461 461 461 462 463 464 465 466 467 467 467 467 468 468 466 468 468 469 469 469 471 473 475 477 478 479 479 479 481 482 482 482 483 484 485 487 488 489 491 494 494 494 494 495 498 500 503 505 506 507 508 510 512 514 516 519 521 523 526 528 531 533 536 539 542 546 549 550 552 554 557 560 562 565 567 569 572 573 575 576 578 580 582 583 585 586
177 176 175 174 173 172 173 174 175 181 187 187 189 189 190 190 190 190 190 190 191 191 191 191 194 195 197 199 200 201 201 201 203 205 207 209 211 214 216 219 221 224 228 230 233 238 242 244 248 252 256 259 261 263 266 267 269 271 272 275 277 278 280 281 283 285 287 288 289 290 291 292 294 294 295 295 295 296 296 297 298 299 301 302 303 305 312 317 317 315 314 312 315 318 323 325 326 329 331 333 338 342 346 347 348 347 347 351 350 354 355 356 357 360 361 362 365 364 363 362 362 361 360 359 359 358 357 356 355 353 350 348 345 346 347 350 353 356 360 365 368 371 372 375 377 376 377 382 386 387 388 388 388 388 388 389 390 391 392 394 395 396 399 400 400 401 401 402 404 405 406 407 407 408 410 411 412 413 413 414 414 415 416 416 417 417 418 418 418 418 419 419 420 421 422 424 425 426 428 430 430 431 432 433 434 435 437 437 439 440 442 443 444 446 447 447 447 448 448 449 450 451 452 453 454 455 455 457 458 458 458 459 461 461 461 460 460 460 460 461 462 463 464 465 466 466 467 468 468 467 466 466 467 468 468 469 470 472 473 475 478 478 479 478 478 479 480 481 482 483 485 486 488 489 491 493 493 493 494 495 497 500 502 504 505 506 508 509 511 514 517 518 520 523 525 528 530 533 535 538 542 545 549 551 552 554 557 560 562 564 567 569 571 573 574 576 578 579 581 583 585 586
176 175 174 173 170 172 174 175 177 180 186 187 188 189 190 190 190 190 190 190 191 191 191 191 192 194 196 198 200 201 201 202 204 206 208 210 213 217 220 220 224 227 230 232 235 239 243 246 249 253 257 261 263 264 266 268 270 272 274 276 278 280 282 284 285 287 290 291 293 294 295 296 298 299 299 300 300 301 302 303 303 305 307 308 310 314 319 325 324 324 323 321 320 322 326 330 332 333 335 338 342 346 349 351 351 350 351 355 355 358 358 358 360 362 364 366 370 375 370 366 366 366 365 364 363 362 361 360 359 357 354 351 348 346 347 347 352 355 358 364 369 370 370 373 375 376 376 379 384 386 387 387 387 387 388 388 389 390 392 393 395 396 399 400 400 401 401 401 403 404 405 406 407 408 409 410 411 412 412 413 414 415 415 416 416 417 417 417 417 418 418 419 419 420 421 422 423 425 427 428 429 430 432 431 432 434 435 436 437 438 440 441 443 444 445 446 447 447 448 448 449 450 451 452 453 454 455 456 457 457 457 459 461 461 460 459 459 459 459 459 460 461 463 464 464 465 466 467 468 468 466 465 466 467 468 469 470 471 473 473 476 477 478 478 478 478 479 480 481 483 485 486 487 489 491 493 493 493 493 494 497 499 502 503 505 506 507 508 510 514 517 519 521 522 525 527 530 532 535 538 541 545 548 551 553 555 557 560 562 564 566 569 571 572 574 576 577 579 581 583 584 586
176 175 173 171 170 171 175 178 181 182 186 187 188 189 189 190 190 190 190 190 191 191 191 191 190 193 195 197 199 200 201 203 205 206 209 212 216 219 222 224 226 229 231 234 237 240 244 247 250 253 257 261 263 265 267 270 271 273 275 277 279 282 284 286 287 289 292 295 296 297 299 301 303 303 303 304 305 306 307 308 309 311 313 315 318 322 327 328 330 330 329 329 328 326 330 334 337 338 340 343 346 348 351 354 353 354 355 356 358 358 359 360 362 364 366 368 372 375 372 369 367 368 368 368 367 366 364 363 361 359 357 354 351 348 346 347 349 353 358 364 366 367 369 371 372 375 376 378 379 380 382 384 385 387 387 387 389 390 391 393 394 396 399 399 400 400 401 401 402 403 404 405 406 408 408 409 410 411 411 412 413 414 414 415 415 416 416 416 416 417 418 418 418 419 420 421 422 424 426 427 428 429 429 430 431 432 434 435 436 437 438 440 441 443 445 445 446 447 447 448 448 449 451 452 453 453 454 455 456 456 455 457 457 458 459 459 458 458 458 458 459 460 461 462 462 463 464 465 466 467 467 466 465 466 467 468 469 470 472 473 474 476 478 478 478 477 478 479 481 483 484 486 488 489 491 493 493 492 493 494 496 499 501 503 504 505 506 508 510 513 516 519 521 523 524 527 529 532 534 538 541 545 548 551 554 555 557 559 561 564 566 568 570 572 573 575 577 579 580 582 584 586
178 174 170 170 172 174 177 180 183 184 186 187 187 188 189 190 190 191 191 190 190 191 191 191 191 191 194 197 198 200 201 203 205 207 209 212 217 221 223 226 228 230 233 235 238 242 246 248 251 255 258 262 264 266 270 271 273 274 277 279 281 284 286 289 290 291 294 297 299 300 302 304 306 306 306 307 309 311 312 314 315 317 320 323 326 328 329 329 331 333 335 335 334 332 334 338 342 344 346 346 348 351 353 355 355 357 358 358 359 360 360 362 364 366 368 370 373 375 374 372 369 369 369 370 369 368 367 365 363 360 358 355 353 351 349 346 347 352 358 363 364 366 368 370 373 375 377 378 379 379 380 382 384 385 386 387 388 389 390 392 394 396 399 399 400 400 401 402 403 403 404 404 405 407 407 408 409 410 411 411 412 412 413 414 415 415 415 415 416 416 416 416 417 417 418 419 421 423 425 426 426 427 428 429 430 431 433 434 435 436 437 438 440 442 444 445 446 446 447 447 448 449 450 451 452 453 454 454 455 455 455 455 456 457 457 458 458 457 457 457 458 459 460 461 461 461 462 463 464 465 466 466 465 465 466 467 468 470 473 474 474 475 477 477 477 477 478 479 481 482 484 486 488 489 491 492 492 492 492 493 495 498 500 502 504 505 506 507 510 513 516 519 521 523 525 527 529 531 534 537 541 544 548 551 554 555 557 559 561 563 565 568 570 571 573 575 577 578 580 582 584 585
177 173 169 171 174 178 180 182 183 184 186 186 187 188 188 189 190 191 191 190 190 191 191 191 191 192 193 196 198 199 201 203 205 207 209 212 217 221 222 225 228 230 233 236 240 244 246 249 253 257 261 264 265 267 269 271 273 276 278 280 283 286 288 291 293 293 297 300 302 303 305 306 308 308 308 309 311 312 315 318 319 320 323 325 328 330 330 330 331 333 335 337 339 337 339 345 345 347 349 351 350 353 355 356 357 358 359 359 360 361 362 364 365 367 370 372 374 375 373 373 372 370 370 371 371 370 369 367 365 362 359 357 354 352 350 348 347 350 356 360 362 365 367 369 372 375 376 378 378 379 379 381 383 385 386 387 387 390 390 392 393 395 398 401 401 401 401 404 403 403 404 404 405 405 406 407 408 409 409 410 411 411 412 412 413 414 414 414 415 415 415 415 415 416 417 419 421 422 423 423 424 424 426 428 429 430 432 433 434 435 436 437 439 441 443 445 445 445 446 446 448 448 449 451 451 452 452 453 453 454 454 454 455 456 456 457 457 456 456 456 457 459 460 460 460 460 460 461 462 463 464 465 465 464 465 466 468 470 473 473 474 474 475 476 476 476 478 479 481 482 483 485 487 489 490 492 492 492 492 493 495 497 499 501 503 504 505 507 509 512 515 518 521 523 525 527 529 531 534 537 541 545 548 552 553 555 556 558 560 563 565 567 569 570 573 574 576 578 580 581 583 585
175 171 170 171 176 181 182 183 183 184 185 186 187 188 189 189 191 191 191 190 190 191 191 191 191 191 191 195 197 199 202 204 205 207 209 212 216 220 223 225 228 231 234 237 240 244 248 250 254 258 261 264 265 268 270 272 274 277 279 281 284 287 290 293 295 296 299 301 303 305 307 309 310 311 310 313 314 317 319 322 322 323 325 327 329 332 332 332 333 335 337 339 341 343 346 349 348 350 350 353 354 355 357 358 358 359 358 360 362 363 364 365 367 369 371 373 374 375 375 372 371 372 372 372 372 371 371 369 366 364 361 358 356 353 350 348 348 350 353 358 360 363 366 368 371 374 376 377 378 379 379 381 382 385 386 386 388 389 390 391 392 394 398 401 402 405 403 403 403 403 403 404 404 405 405 406 407 408 408 409 410 410 410 411 412 413 413 413 413 413 413 414 414 415 416 418 419 420 420 421 421 423 425 426 427 429 430 432 433 435 436 437 439 440 442 443 444 444 445 445 446 447 449 450 450 451 451 452 452 453 453 454 454 455 455 455 456 456 455 456 457 458 458 458 458 458 459 459 460 461 462 463 464 464 464 465 468 470 471 472 473 474 474 475 475 476 477 478 480 482 483 484 485 487 489 491 492 492 492 492 494 496 498 500 502 503 504 506 509 512 515 518 521 524 525 527 529 530 535 539 543 546 549 551 553 555 556 558 560 562 564 567 568 570 572 574 576 578 579 581 583 584
173 169 168 168 174 178 182 183 183 184 185 186 187 188 189 189 190 190 191 191 190 190 191 191 191 191 191 192 196 199 202 205 206 208 210 213 216 220 223 225 228 232 234 237 241 245 248 250 254 258 260 263 265 268 271 273 275 279 280 282 285 288 291 293 295 297 300 302 305 307 309 311 312 313 313 315 317 320 322 323 325 327 328 328 330 332 334 335 336 338 340 342 344 345 347 351 352 352 353 355 356 357 358 360 361 362 363 363 363 364 366 367 369 371 372 373 374 375 375 374 373 373 373 373 373 373 372 371 368 366 363 360 357 355 352 349 348 351 353 356 358 361 364 367 369 371 373 375 376 377 379 380 382 385 386 387 387 388 389 390 391 392 396 400 403 404 405 403 403 403 403 403 404 404 404 405 406 406 407 408 408 409 409 410 410 411 412 412 412 412 412 412 412 413 415 416 417 417 419 420 421 422 423 424 425 427 429 431 432 433 435 436 437 438 440 441 442 443 444 444 445 446 447 448 449 449 450 450 451 452 452 453 453 454 454 454 455 455 455 455 456 456 456 456 457 457 457 458 459 460 460 461 462 463 463 465 466 468 470 470 471 473 473 474 474 475 476 478 479 481 482 483 484 486 488 490 491 492 492 492 493 496 498 499 501 502 504 506 508 511 515 518 521 524 526 527 528 531 536 541 544 547 548 549 551 554 556 557 559 562 564 566 568 570 572 574 576 577 579 581 583 584
170 167 166 170 174 177 181 183 183 184 185 186 186 187 188 189 189 189 190 191 190 191 190 191 191 191 191 191 194 198 201 204 206 208 210 213 216 220 222 225 229 232 235 238 241 244 248 251 254 257 260 263 265 268 271 273 276 280 281 284 287 290 292 294 296 298 301 304 306 308 310 312 314 314 315 317 319 321 324 325 327 329 330 332 333 334 336 338 340 342 344 345 346 347 349 350 352 352 354 356 357 359 360 362 363 364 364 364 365 365 366 368 370 372 373 375 375 376 378 377 375 374 374 374 374 374 373 372 371 368 365 363 360 357 355 352 349 351 353 355 357 360 363 366 368 370 372 374 375 376 378 379 381 383 385 386 386 387 388 389 390 391 394 396 399 402 402 403 403 403 403 403 404 405 405 405 405 405 406 406 407 407 408 409 409 410 410 411 411 411 411 411 411 412 413 414 415 417 418 419 420 420 421 422 424 425 427 429 430 432 433 434 436 437 438 439 441 442 443 443 444 446 446 447 447 448 449 449 450 451 451 452 452 452 453 453 453 454 454 455 455 455 455 455 456 456 457 457 458 458 459 460 461 462 463 463 464 466 467 468 469 471 472 473 473 474 476 477 479 480 481 483 484 486 488 490 491 491 491 491 493 495 497 499 500 501 503 505 507 511 514 517 520 523 525 526 527 532 537 541 543 544 545 546 549 552 555 557 559 561 563 565 568 570 572 574 575 577 579 581 582 584
168 166 169 173 177 180 181 182 183 184 185 186 186 187 188 188 189 189 189 191 190 190 191 191 191 191 191 191 192 197 199 203 206 208 210 213 216 219 222 226 230 233 235 238 241 244 248 251 254 257 261 264 267 269 272 274 276 280 282 285 288 290 292 295 297 299 302 305 307 309 311 312 315 316 316 318 320 321 324 326 328 330 332 334 334 336 338 340 343 344 345 346 348 349 350 351 351 353 355 357 358 360 362 364 364 365 365 365 366 366 367 370 372 374 375 375 376 377 377 378 376 376 375 375 375 375 374 373 372 371 368 365 363 360 357 355 351 351 354 355 356 359 363 365 366 369 373 373 374 376 378 379 380 381 383 384 385 386 387 388 389 391 394 396 398 400 401 401 402 402 402 403 404 405 405 406 404 403 404 405 405 406 407 407 408 409 409 410 411 410 410 410 410 411 412 414 415 416 417 418 419 419 420 420 422 424 425 427 429 430 432 433 434 436 437 438 439 440 441 442 443 445 445 445 446 447 447 448 449 449 450 450 451 451 452 452 452 453 453 453 454 454 454 455 455 455 456 456 456 457 458 459 460 460 461 461 462 463 464 466 467 469 470 472 473 474 475 477 478 480 481 483 484 485 488 490 490 490 490 491 492 494 496 498 499 501 503 505 507 510 513 516 519 522 524 525 528 532 535 537 539 540 541 545 547 550 553 555 558 560 563 565 567 570 571 573 575 577 578 580 582 584
167 168 171 174 178 181 181 182 182 183 184 185 186 187 187 187 188 188 189 189 190 190 190 191 191 191 191 191 191 193 197 201 204 208 210 213 216 219 222 226 229 233 235 238 241 244 248 251 253 257 261 265 268 270 272 275 277 280 283 286 288 291 293 296 298 299 303 305 308 310 311 312 316 317 318 320 321 323 325 328 330 332 334 336 337 339 341 343 344 345 346 347 349 350 351 351 352 354 356 358 359 361 363 365 365 366 366 366 367 368 369 372 375 375 375 376 377 378 377 377 377 376 376 376 376 375 375 374 373 373 372 368 365 363 360 358 354 351 353 354 356 357 361 363 365 369 371 375 375 376 377 379 379 380 382 383 384 385 386 387 389 390 393 395 397 398 400 399 400 402 401 403 404 405 405 406 404 403 403 405 405 406 406 406 407 407 408 409 409 409 409 409 409 410 411 412 414 415 416 416 417 418 418 419 420 422 424 425 427 429 430 431 433 434 436 437 438 439 440 441 443 444 444 444 445 445 446 447 447 448 448 449 449 450 450 451 452 452 451 452 452 453 454 454 454 454 455 455 455 456 457 458 458 459 459 460 461 462 464 466 467 468 470 471 472 473 475 477 478 480 481 483 484 485 486 489 490 490 490 490 491 494 496 497 498 500 502 504 507 509 512 515 518 521 523 524 526 528 530 533 535 537 540 543 546 548 551 553 556 559 562 565 567 569 571 573 575 576 578 580 581 583
